1858
625.0000 54.9690 245.0000
625.0000 54.0191 250.0000
625.0000 53.9345 255.0000
625.0000 52.1660 260.0000
625.0000 52.2880 265.0000
625.0000 50.5518 270.0000
625.0000 50.8366 275.0000
625.0000 47.1994 280.0000
625.0000 51.7464 285.0000
625.0000 51.1874 290.0000
625.0000 48.3928 295.0000
625.0000 50.7309 300.0000
625.0000 49.7552 305.0000
625.0000 50.9321 310.0000
625.0000 50.9033 315.0000
625.0000 47.9282 320.0000
625.0000 48.6525 325.0000
625.0000 45.3347 330.0000
625.0000 49.7565 335.0000
625.0000 45.9619 340.0000
625.0000 45.6980 345.0000
625.0000 47.1794 350.0000
625.0000 51.2664 355.0000
625.0000 46.9170 360.0000
625.0000 46.6173 365.0000
625.0000 48.5007 370.0000
625.0000 45.9235 375.0000
625.0000 46.5647 380.0000
625.0000 45.5624 385.0000
625.0000 46.8106 390.0000
625.0000 44.1602 395.0000
625.0000 37.9887 400.0000
625.0000 36.3916 405.0000
625.0000 36.4233 410.0000
625.0000 37.9434 415.0000
625.0000 34.3419 420.0000
625.0000 25.1667 425.0000
625.0000 34.0593 430.0000
625.0000 39.9960 435.0000
625.0000 42.4610 440.0000
625.0000 30.8261 445.0000
625.0000 35.1074 450.0000
625.0000 42.5070 455.0000
625.0000 45.3546 460.0000
625.0000 38.3094 465.0000
625.0000 46.8828 470.0000
625.0000 46.8289 475.0000
625.0000 51.7974 480.0000
625.0000 46.9437 485.0000
625.0000 53.8837 490.0000
625.0000 61.7159 495.0000
625.0000 64.3378 500.0000
625.0000 66.4759 505.0000
625.0000 61.0555 510.0000
625.0000 64.1265 515.0000
625.0000 61.6339 520.0000
625.0000 67.7404 525.0000
625.0000 70.1245 530.0000
625.0000 67.4538 535.0000
625.0000 66.5613 540.0000
625.0000 71.0531 545.0000
625.0000 67.3070 550.0000
625.0000 68.7248 555.0000
625.0000 67.9767 560.0000
625.0000 67.9884 565.0000
625.0000 68.6102 570.0000
625.0000 69.1525 575.0000
625.0000 69.4830 580.0000
625.0000 71.7650 585.0000
625.0000 71.7720 590.0000
625.0000 70.5009 595.0000
625.0000 70.1333 600.0000
630.0000 59.0853 0.0000
630.0000 59.0552 5.0000
630.0000 61.7887 10.0000
630.0000 61.6472 15.0000
630.0000 62.6968 20.0000
630.0000 63.3854 25.0000
630.0000 61.3362 30.0000
630.0000 62.2081 35.0000
630.0000 61.0572 40.0000
630.0000 64.1916 45.0000
630.0000 62.8957 50.0000
630.0000 64.3986 55.0000
630.0000 63.5339 60.0000
630.0000 63.0937 65.0000
630.0000 62.7954 70.0000
630.0000 62.3858 75.0000
630.0000 68.3153 80.0000
630.0000 63.9432 85.0000
630.0000 61.6629 90.0000
630.0000 66.5711 95.0000
630.0000 63.9124 100.0000
630.0000 60.5710 105.0000
630.0000 64.8502 110.0000
630.0000 59.2298 115.0000
630.0000 58.9320 120.0000
630.0000 60.8294 125.0000
630.0000 61.9042 130.0000
630.0000 58.0647 135.0000
630.0000 59.4328 140.0000
630.0000 56.5835 145.0000
630.0000 56.6567 150.0000
630.0000 57.6005 155.0000
630.0000 59.2319 160.0000
630.0000 55.8671 165.0000
630.0000 60.5303 170.0000
630.0000 58.1576 175.0000
630.0000 54.5638 180.0000
630.0000 56.0923 185.0000
630.0000 54.6386 190.0000
630.0000 54.0865 195.0000
630.0000 53.8143 200.0000
630.0000 54.5681 205.0000
630.0000 53.8044 210.0000
630.0000 53.3227 215.0000
630.0000 57.9095 220.0000
630.0000 57.4505 225.0000
630.0000 54.5123 230.0000
630.0000 53.9292 235.0000
630.0000 57.3375 240.0000
630.0000 51.1224 245.0000
630.0000 52.9264 250.0000
630.0000 49.8612 255.0000
630.0000 50.4467 260.0000
630.0000 49.5465 265.0000
630.0000 45.2924 270.0000
630.0000 46.3138 275.0000
630.0000 49.4230 280.0000
630.0000 51.3758 285.0000
630.0000 51.4717 290.0000
630.0000 48.4884 295.0000
630.0000 48.3496 300.0000
630.0000 48.7896 305.0000
630.0000 48.5488 310.0000
630.0000 47.0000 315.0000
630.0000 47.3088 320.0000
630.0000 48.2236 325.0000
630.0000 43.6587 330.0000
630.0000 44.2336 335.0000
630.0000 47.0909 340.0000
630.0000 45.0995 345.0000
630.0000 46.9901 350.0000
630.0000 49.4705 355.0000
630.0000 49.1549 360.0000
630.0000 47.9823 365.0000
630.0000 51.8438 370.0000
630.0000 48.0078 375.0000
630.0000 42.3712 380.0000
630.0000 45.3118 385.0000
630.0000 44.3888 390.0000
630.0000 45.1627 395.0000
630.0000 39.2101 400.0000
630.0000 31.2632 405.0000
630.0000 34.4605 410.0000
630.0000 38.9054 415.0000
630.0000 32.3200 420.0000
630.0000 33.8483 425.0000
630.0000 36.9754 430.0000
630.0000 41.1486 435.0000
630.0000 41.8429 440.0000
630.0000 37.3777 445.0000
630.0000 43.2300 450.0000
630.0000 43.1226 455.0000
630.0000 46.5187 460.0000
630.0000 42.7385 465.0000
630.0000 42.7936 470.0000
630.0000 48.7632 475.0000
630.0000 50.1899 480.0000
630.0000 55.1464 485.0000
630.0000 56.3848 490.0000
630.0000 63.4541 495.0000
630.0000 67.0491 500.0000
630.0000 60.3655 505.0000
630.0000 59.9787 510.0000
630.0000 67.8666 515.0000
630.0000 61.8430 520.0000
630.0000 62.5663 525.0000
630.0000 66.1462 530.0000
630.0000 69.5992 535.0000
630.0000 65.3874 540.0000
630.0000 72.4450 545.0000
630.0000 68.0801 550.0000
630.0000 67.0913 555.0000
630.0000 68.0292 560.0000
630.0000 73.0663 565.0000
630.0000 69.9530 570.0000
630.0000 69.8679 575.0000
630.0000 68.4130 580.0000
630.0000 69.9783 585.0000
630.0000 74.4835 590.0000
630.0000 72.7133 595.0000
630.0000 70.9916 600.0000
635.0000 59.6497 0.0000
635.0000 58.2897 5.0000
635.0000 61.2667 10.0000
635.0000 59.9222 15.0000
635.0000 60.7365 20.0000
635.0000 62.3154 25.0000
635.0000 58.7282 30.0000
635.0000 61.0465 35.0000
635.0000 61.2867 40.0000
635.0000 59.6798 45.0000
635.0000 62.9027 50.0000
635.0000 61.6876 55.0000
635.0000 65.6628 60.0000
635.0000 61.8169 65.0000
635.0000 60.2910 70.0000
635.0000 63.4213 75.0000
635.0000 61.6089 80.0000
635.0000 63.1623 85.0000
635.0000 61.6960 90.0000
635.0000 62.8403 95.0000
635.0000 60.3202 100.0000
635.0000 58.4132 105.0000
635.0000 60.4367 110.0000
635.0000 59.9254 115.0000
635.0000 61.6035 120.0000
635.0000 61.8494 125.0000
635.0000 57.7660 130.0000
635.0000 56.9485 135.0000
635.0000 54.8943 140.0000
635.0000 58.9008 145.0000
635.0000 58.0665 150.0000
635.0000 57.1333 155.0000
635.0000 55.6510 160.0000
635.0000 57.7035 165.0000
635.0000 58.7048 170.0000
635.0000 55.9656 175.0000
635.0000 53.4163 180.0000
635.0000 54.3716 185.0000
635.0000 53.7732 190.0000
635.0000 51.8093 195.0000
635.0000 53.2866 200.0000
635.0000 54.2787 205.0000
635.0000 53.6531 210.0000
635.0000 52.8533 215.0000
635.0000 57.6847 220.0000
635.0000 54.5023 225.0000
635.0000 56.6342 230.0000
635.0000 56.6815 235.0000
635.0000 55.8719 240.0000
635.0000 51.6790 245.0000
635.0000 48.3194 250.0000
635.0000 46.7586 255.0000
635.0000 52.1540 260.0000
635.0000 53.4181 265.0000
635.0000 50.7194 270.0000
635.0000 48.2238 275.0000
635.0000 50.0756 280.0000
635.0000 47.4814 285.0000
635.0000 47.6421 290.0000
635.0000 48.6799 295.0000
635.0000 47.3826 300.0000
635.0000 45.6539 305.0000
635.0000 45.6269 310.0000
635.0000 46.5895 315.0000
635.0000 46.0294 320.0000
635.0000 45.4803 325.0000
635.0000 44.2977 330.0000
635.0000 41.0227 335.0000
635.0000 47.0723 340.0000
635.0000 46.7021 345.0000
635.0000 47.5267 350.0000
635.0000 48.4060 355.0000
635.0000 48.7487 360.0000
635.0000 45.8401 365.0000
635.0000 48.2076 370.0000
635.0000 44.0701 375.0000
635.0000 42.6443 380.0000
635.0000 41.3141 385.0000
635.0000 42.0613 390.0000
635.0000 42.1500 395.0000
635.0000 39.3657 400.0000
635.0000 30.6633 405.0000
635.0000 37.0064 410.0000
635.0000 33.8510 415.0000
635.0000 25.6125 420.0000
635.0000 36.3134 425.0000
635.0000 38.3698 430.0000
635.0000 39.4576 435.0000
635.0000 35.7672 440.0000
635.0000 43.9982 445.0000
635.0000 35.6026 450.0000
635.0000 46.6450 455.0000
635.0000 41.6288 460.0000
635.0000 46.1275 465.0000
635.0000 43.7842 470.0000
635.0000 45.8446 475.0000
635.0000 49.3134 480.0000
635.0000 54.6793 485.0000
635.0000 62.0517 490.0000
635.0000 62.1953 495.0000
635.0000 61.9145 500.0000
635.0000 60.5856 505.0000
635.0000 61.7454 510.0000
635.0000 62.2792 515.0000
635.0000 66.9894 520.0000
635.0000 67.3309 525.0000
635.0000 66.7290 530.0000
635.0000 67.1723 535.0000
635.0000 63.5458 540.0000
635.0000 70.5682 545.0000
635.0000 65.1080 550.0000
635.0000 68.4446 555.0000
635.0000 67.3168 560.0000
635.0000 68.7873 565.0000
635.0000 70.2693 570.0000
635.0000 71.2904 575.0000
635.0000 70.2267 580.0000
635.0000 75.3291 585.0000
635.0000 72.0380 590.0000
635.0000 72.0481 595.0000
635.0000 66.5900 600.0000
640.0000 56.6378 0.0000
640.0000 58.4449 5.0000
640.0000 56.9870 10.0000
640.0000 57.2857 15.0000
640.0000 56.9481 20.0000
640.0000 59.1162 25.0000
640.0000 60.5030 30.0000
640.0000 63.6958 35.0000
640.0000 58.6745 40.0000
640.0000 57.3106 45.0000
640.0000 59.1738 50.0000
640.0000 56.8986 55.0000
640.0000 61.3358 60.0000
640.0000 58.0960 65.0000
640.0000 58.7189 70.0000
640.0000 58.6087 75.0000
640.0000 60.5705 80.0000
640.0000 60.0297 85.0000
640.0000 61.9482 90.0000
640.0000 61.6620 95.0000
640.0000 57.2897 100.0000
640.0000 60.1995 105.0000
640.0000 58.5378 110.0000
640.0000 56.2725 115.0000
640.0000 56.2964 120.0000
640.0000 55.6519 125.0000
640.0000 56.3198 130.0000
640.0000 53.2478 135.0000
640.0000 57.0030 140.0000
640.0000 58.9547 145.0000
640.0000 55.9196 150.0000
640.0000 56.1352 155.0000
640.0000 53.3855 160.0000
640.0000 54.9300 165.0000
640.0000 56.9698 170.0000
640.0000 55.8169 175.0000
640.0000 56.1298 180.0000
640.0000 54.5197 185.0000
640.0000 55.5529 190.0000
640.0000 52.5725 195.0000
640.0000 50.0836 200.0000
640.0000 53.2724 205.0000
640.0000 50.1966 210.0000
640.0000 51.8304 215.0000
640.0000 51.2799 220.0000
640.0000 53.7807 225.0000
640.0000 54.0972 230.0000
640.0000 53.1415 235.0000
640.0000 49.8947 240.0000
640.0000 49.1698 245.0000
640.0000 49.2426 250.0000
640.0000 49.7094 255.0000
640.0000 52.1343 260.0000
640.0000 48.6115 265.0000
640.0000 50.5330 270.0000
640.0000 52.8242 275.0000
640.0000 47.7065 280.0000
640.0000 47.7943 285.0000
640.0000 44.5487 290.0000
640.0000 45.7365 295.0000
640.0000 48.2522 300.0000
640.0000 50.2497 305.0000
640.0000 48.3509 310.0000
640.0000 46.2414 315.0000
640.0000 43.6310 320.0000
640.0000 45.4529 325.0000
640.0000 46.2769 330.0000
640.0000 45.5193 335.0000
640.0000 48.7345 340.0000
640.0000 47.5184 345.0000
640.0000 47.1693 350.0000
640.0000 43.1228 355.0000
640.0000 46.7058 360.0000
640.0000 47.3179 365.0000
640.0000 48.0679 370.0000
640.0000 46.8260 375.0000
640.0000 44.6055 380.0000
640.0000 41.2668 385.0000
640.0000 41.0770 390.0000
640.0000 37.1074 395.0000
640.0000 32.1627 400.0000
640.0000 36.9667 405.0000
640.0000 39.6900 410.0000
640.0000 35.9645 415.0000
640.0000 34.7874 420.0000
640.0000 40.0979 425.0000
640.0000 40.4249 430.0000
640.0000 33.9718 435.0000
640.0000 30.5467 440.0000
640.0000 35.4375 445.0000
640.0000 30.9231 450.0000
640.0000 43.1656 455.0000
640.0000 43.1050 460.0000
640.0000 43.9304 465.0000
640.0000 49.9426 470.0000
640.0000 52.3496 475.0000
640.0000 58.1474 480.0000
640.0000 60.0559 485.0000
640.0000 57.7952 490.0000
640.0000 56.3258 495.0000
640.0000 57.2322 500.0000
640.0000 64.0169 505.0000
640.0000 64.6545 510.0000
640.0000 62.4495 515.0000
640.0000 62.2265 520.0000
640.0000 62.2045 525.0000
640.0000 65.0455 530.0000
640.0000 62.6259 535.0000
640.0000 62.1430 540.0000
640.0000 64.4989 545.0000
640.0000 65.2900 550.0000
640.0000 68.7508 555.0000
640.0000 71.0897 560.0000
640.0000 69.3224 565.0000
640.0000 67.4205 570.0000
640.0000 69.9621 575.0000
640.0000 66.1902 580.0000
640.0000 65.4855 585.0000
640.0000 67.2933 590.0000
640.0000 73.8946 595.0000
640.0000 70.7333 600.0000
645.0000 55.3697 0.0000
645.0000 52.6063 5.0000
645.0000 54.1814 10.0000
645.0000 56.9362 15.0000
645.0000 56.2402 20.0000
645.0000 59.1710 25.0000
645.0000 56.5395 30.0000
645.0000 59.1272 35.0000
645.0000 57.7938 40.0000
645.0000 55.9455 45.0000
645.0000 57.5876 50.0000
645.0000 57.8834 55.0000
645.0000 60.1162 60.0000
645.0000 59.1434 65.0000
645.0000 59.2354 70.0000
645.0000 59.3492 75.0000
645.0000 61.4488 80.0000
645.0000 59.4595 85.0000
645.0000 58.1790 90.0000
645.0000 62.4312 95.0000
645.0000 59.9209 100.0000
645.0000 60.1859 105.0000
645.0000 57.3101 110.0000
645.0000 57.7742 115.0000
645.0000 57.0769 120.0000
645.0000 55.9987 125.0000
645.0000 54.4479 130.0000
645.0000 55.2329 135.0000
645.0000 53.6679 140.0000
645.0000 53.3895 145.0000
645.0000 54.8201 150.0000
645.0000 55.3653 155.0000
645.0000 50.9876 160.0000
645.0000 52.1195 165.0000
645.0000 52.0679 170.0000
645.0000 53.0067 175.0000
645.0000 54.9124 180.0000
645.0000 53.6152 185.0000
645.0000 50.3035 190.0000
645.0000 50.1027 195.0000
645.0000 50.4303 200.0000
645.0000 53.6728 205.0000
645.0000 51.8486 210.0000
645.0000 48.8870 215.0000
645.0000 54.8518 220.0000
645.0000 52.7744 225.0000
645.0000 55.9756 230.0000
645.0000 49.6443 235.0000
645.0000 51.9873 240.0000
645.0000 51.8310 245.0000
645.0000 47.0183 250.0000
645.0000 47.5811 255.0000
645.0000 49.9040 260.0000
645.0000 46.8918 265.0000
645.0000 47.6267 270.0000
645.0000 49.8176 275.0000
645.0000 49.2878 280.0000
645.0000 46.0257 285.0000
645.0000 45.0594 290.0000
645.0000 47.9465 295.0000
645.0000 51.7813 300.0000
645.0000 48.4295 305.0000
645.0000 44.1509 310.0000
645.0000 43.5464 315.0000
645.0000 45.7710 320.0000
645.0000 46.3171 325.0000
645.0000 50.0903 330.0000
645.0000 48.5662 335.0000
645.0000 47.6728 340.0000
645.0000 43.3367 345.0000
645.0000 48.7325 350.0000
645.0000 45.4589 355.0000
645.0000 44.2001 360.0000
645.0000 46.2128 365.0000
645.0000 45.1648 370.0000
645.0000 49.2082 375.0000
645.0000 44.7369 380.0000
645.0000 40.5236 385.0000
645.0000 40.7958 390.0000
645.0000 35.1310 395.0000
645.0000 32.1195 400.0000
645.0000 36.6336 405.0000
645.0000 38.0445 410.0000
645.0000 31.4133 415.0000
645.0000 32.4768 420.0000
645.0000 34.3981 425.0000
645.0000 33.8797 430.0000
645.0000 28.8829 435.0000
645.0000 31.6314 440.0000
645.0000 40.3589 445.0000
645.0000 36.4364 450.0000
645.0000 43.3318 455.0000
645.0000 45.3877 460.0000
645.0000 44.0822 465.0000
645.0000 53.9171 470.0000
645.0000 56.7050 475.0000
645.0000 60.8071 480.0000
645.0000 54.3512 485.0000
645.0000 57.8225 490.0000
645.0000 63.6103 495.0000
645.0000 57.3994 500.0000
645.0000 57.0034 505.0000
645.0000 59.2027 510.0000
645.0000 64.2258 515.0000
645.0000 62.0628 520.0000
645.0000 61.7992 525.0000
645.0000 63.2523 530.0000
645.0000 60.5999 535.0000
645.0000 59.0008 540.0000
645.0000 61.3117 545.0000
645.0000 64.8077 550.0000
645.0000 67.3726 555.0000
645.0000 69.9052 560.0000
645.0000 73.3155 565.0000
645.0000 71.5141 570.0000
645.0000 64.8219 575.0000
645.0000 66.9386 580.0000
645.0000 71.8161 585.0000
645.0000 69.2496 590.0000
645.0000 72.2622 595.0000
645.0000 79.4163 600.0000
650.0000 54.8952 0.0000
650.0000 54.5991 5.0000
650.0000 56.1177 10.0000
650.0000 55.9610 15.0000
650.0000 58.7446 20.0000
650.0000 57.5191 25.0000
650.0000 58.7001 30.0000
650.0000 56.5922 35.0000
650.0000 58.0952 40.0000
650.0000 57.5021 45.0000
650.0000 57.8284 50.0000
650.0000 58.0593 55.0000
650.0000 61.2924 60.0000
650.0000 59.7370 65.0000
650.0000 60.2614 70.0000
650.0000 57.2055 75.0000
650.0000 58.0820 80.0000
650.0000 58.1573 85.0000
650.0000 59.5002 90.0000
650.0000 61.0727 95.0000
650.0000 61.5861 100.0000
650.0000 59.7590 105.0000
650.0000 55.2462 110.0000
650.0000 57.3508 115.0000
650.0000 56.1656 120.0000
650.0000 53.6131 125.0000
650.0000 54.9150 130.0000
650.0000 53.8082 135.0000
650.0000 52.5241 140.0000
650.0000 55.1906 145.0000
650.0000 54.9298 150.0000
650.0000 54.8393 155.0000
650.0000 51.1688 160.0000
650.0000 50.0408 165.0000
650.0000 51.8529 170.0000
650.0000 51.7043 175.0000
650.0000 51.5604 180.0000
650.0000 50.6783 185.0000
650.0000 50.9542 190.0000
650.0000 51.1355 195.0000
650.0000 51.6545 200.0000
650.0000 53.5205 205.0000
650.0000 53.4517 210.0000
650.0000 49.9666 215.0000
650.0000 54.0111 220.0000
650.0000 51.8001 225.0000
650.0000 51.7159 230.0000
650.0000 52.0379 235.0000
650.0000 52.4170 240.0000
650.0000 51.5270 245.0000
650.0000 47.8674 250.0000
650.0000 48.4644 255.0000
650.0000 46.7378 260.0000
650.0000 49.2792 265.0000
650.0000 48.1816 270.0000
650.0000 48.5886 275.0000
650.0000 43.2705 280.0000
650.0000 45.3833 285.0000
650.0000 45.8337 290.0000
650.0000 50.6904 295.0000
650.0000 47.0448 300.0000
650.0000 43.5126 305.0000
650.0000 41.5000 310.0000
650.0000 45.7793 315.0000
650.0000 44.3792 320.0000
650.0000 43.6201 325.0000
650.0000 51.2548 330.0000
650.0000 46.5086 335.0000
650.0000 49.1725 340.0000
650.0000 43.8247 345.0000
650.0000 43.0551 350.0000
650.0000 41.6200 355.0000
650.0000 43.1003 360.0000
650.0000 43.1165 365.0000
650.0000 42.4631 370.0000
650.0000 47.7414 375.0000
650.0000 42.4518 380.0000
650.0000 38.4204 385.0000
650.0000 37.3454 390.0000
650.0000 32.4029 395.0000
650.0000 33.2211 400.0000
650.0000 33.8326 405.0000
650.0000 32.5997 410.0000
650.0000 23.2258 415.0000
650.0000 32.8010 420.0000
650.0000 35.0454 425.0000
650.0000 42.4341 430.0000
650.0000 40.8340 435.0000
650.0000 41.6703 440.0000
650.0000 41.5847 445.0000
650.0000 33.0424 450.0000
650.0000 41.1886 455.0000
650.0000 47.0306 460.0000
650.0000 49.6403 465.0000
650.0000 55.2678 470.0000
650.0000 56.8958 475.0000
650.0000 60.8747 480.0000
650.0000 57.3516 485.0000
650.0000 61.4967 490.0000
650.0000 62.0614 495.0000
650.0000 61.6155 500.0000
650.0000 56.7756 505.0000
650.0000 60.4503 510.0000
650.0000 61.0322 515.0000
650.0000 65.1603 520.0000
650.0000 62.1954 525.0000
650.0000 62.1987 530.0000
650.0000 59.7055 535.0000
650.0000 56.4218 540.0000
650.0000 59.9566 545.0000
650.0000 62.7113 550.0000
650.0000 64.8461 555.0000
650.0000 62.9880 560.0000
650.0000 68.2102 565.0000
650.0000 67.9662 570.0000
650.0000 65.9110 575.0000
650.0000 64.7228 580.0000
650.0000 66.8179 585.0000
650.0000 65.5758 590.0000
650.0000 63.8424 595.0000
650.0000 70.5660 600.0000
655.0000 50.9293 0.0000
655.0000 53.6470 5.0000
655.0000 54.7120 10.0000
655.0000 54.8306 15.0000
655.0000 55.9400 20.0000
655.0000 55.1456 25.0000
655.0000 55.2113 30.0000
655.0000 56.2231 35.0000
655.0000 57.7684 40.0000
655.0000 59.0455 45.0000
655.0000 56.3141 50.0000
655.0000 55.9264 55.0000
655.0000 58.7908 60.0000
655.0000 60.0208 65.0000
655.0000 56.3643 70.0000
655.0000 59.1793 75.0000
655.0000 53.6801 80.0000
655.0000 58.0218 85.0000
655.0000 58.3914 90.0000
655.0000 59.3727 95.0000
655.0000 57.0002 100.0000
655.0000 55.7365 105.0000
655.0000 57.5413 110.0000
655.0000 56.4021 115.0000
655.0000 55.1507 120.0000
655.0000 55.2161 125.0000
655.0000 55.6625 130.0000
655.0000 52.3636 135.0000
655.0000 53.4620 140.0000
655.0000 53.6304 145.0000
655.0000 51.3381 150.0000
655.0000 49.8049 155.0000
655.0000 49.3234 160.0000
655.0000 48.4866 165.0000
655.0000 50.0509 170.0000
655.0000 51.4150 175.0000
655.0000 50.3133 180.0000
655.0000 51.7476 185.0000
655.0000 49.8467 190.0000
655.0000 49.0041 195.0000
655.0000 51.1930 200.0000
655.0000 52.2539 205.0000
655.0000 51.6194 210.0000
655.0000 50.5253 215.0000
655.0000 49.6124 220.0000
655.0000 46.1004 225.0000
655.0000 52.1356 230.0000
655.0000 48.0782 235.0000
655.0000 46.0303 240.0000
655.0000 44.6712 245.0000
655.0000 47.7333 250.0000
655.0000 47.8184 255.0000
655.0000 45.7884 260.0000
655.0000 45.0141 265.0000
655.0000 47.2559 270.0000
655.0000 46.6736 275.0000
655.0000 43.7638 280.0000
655.0000 43.9834 285.0000
655.0000 45.9900 290.0000
655.0000 46.2270 295.0000
655.0000 42.9868 300.0000
655.0000 42.3786 305.0000
655.0000 39.2290 310.0000
655.0000 41.7707 315.0000
655.0000 38.7735 320.0000
655.0000 44.8796 325.0000
655.0000 48.8802 330.0000
655.0000 45.1889 335.0000
655.0000 42.9178 340.0000
655.0000 42.4343 345.0000
655.0000 41.5101 350.0000
655.0000 38.0069 355.0000
655.0000 37.4593 360.0000
655.0000 38.1138 365.0000
655.0000 41.5391 370.0000
655.0000 40.3426 375.0000
655.0000 37.5475 380.0000
655.0000 38.1161 385.0000
655.0000 34.0984 390.0000
655.0000 28.3630 395.0000
655.0000 32.1582 400.0000
655.0000 36.4502 405.0000
655.0000 35.5445 410.0000
655.0000 28.7798 415.0000
655.0000 26.5671 420.0000
655.0000 38.0859 425.0000
655.0000 39.3084 430.0000
655.0000 39.7875 435.0000
655.0000 44.8740 440.0000
655.0000 42.7296 445.0000
655.0000 38.2818 450.0000
655.0000 46.3901 455.0000
655.0000 44.2693 460.0000
655.0000 53.2950 465.0000
655.0000 54.5482 470.0000
655.0000 54.0174 475.0000
655.0000 56.0969 480.0000
655.0000 59.4058 485.0000
655.0000 53.7772 490.0000
655.0000 58.1841 495.0000
655.0000 59.5072 500.0000
655.0000 60.5719 505.0000
655.0000 56.3323 510.0000
655.0000 55.4482 515.0000
655.0000 62.3239 520.0000
655.0000 63.5996 525.0000
655.0000 58.6918 530.0000
655.0000 54.3644 535.0000
655.0000 58.2285 540.0000
655.0000 63.2255 545.0000
655.0000 63.3891 550.0000
655.0000 59.5591 555.0000
655.0000 62.1471 560.0000
655.0000 63.6662 565.0000
655.0000 64.5583 570.0000
655.0000 70.7487 575.0000
655.0000 67.4403 580.0000
655.0000 66.8070 585.0000
655.0000 64.8624 590.0000
655.0000 63.2990 595.0000
655.0000 59.2300 600.0000
660.0000 52.4231 0.0000
660.0000 52.5094 5.0000
660.0000 52.9642 10.0000
660.0000 52.5960 15.0000
660.0000 52.4626 20.0000
660.0000 52.3983 25.0000
660.0000 53.7033 30.0000
660.0000 54.6406 35.0000
660.0000 57.6551 40.0000
660.0000 55.5877 45.0000
660.0000 52.4416 50.0000
660.0000 55.5570 55.0000
660.0000 57.6136 60.0000
660.0000 57.6082 65.0000
660.0000 54.4019 70.0000
660.0000 56.1357 75.0000
660.0000 52.7775 80.0000
660.0000 58.7312 85.0000
660.0000 57.6912 90.0000
660.0000 57.6871 95.0000
660.0000 58.0736 100.0000
660.0000 55.3143 105.0000
660.0000 55.5572 110.0000
660.0000 56.7816 115.0000
660.0000 54.0896 120.0000
660.0000 54.6437 125.0000
660.0000 55.7281 130.0000
660.0000 49.8559 135.0000
660.0000 53.3105 140.0000
660.0000 50.1380 145.0000
660.0000 51.7195 150.0000
660.0000 51.7471 155.0000
660.0000 50.3038 160.0000
660.0000 48.9486 165.0000
660.0000 49.1399 170.0000
660.0000 51.8350 175.0000
660.0000 48.5759 180.0000
660.0000 48.1995 185.0000
660.0000 46.7742 190.0000
660.0000 49.0692 195.0000
660.0000 50.4189 200.0000
660.0000 50.5032 205.0000
660.0000 48.7784 210.0000
660.0000 48.7510 215.0000
660.0000 49.4664 220.0000
660.0000 46.4824 225.0000
660.0000 49.0579 230.0000
660.0000 46.0571 235.0000
660.0000 48.6082 240.0000
660.0000 47.1229 245.0000
660.0000 48.9623 250.0000
660.0000 49.3256 255.0000
660.0000 45.4497 260.0000
660.0000 46.7024 265.0000
660.0000 43.6373 270.0000
660.0000 43.6526 275.0000
660.0000 44.2404 280.0000
660.0000 43.4259 285.0000
660.0000 44.2636 290.0000
660.0000 42.6199 295.0000
660.0000 42.4458 300.0000
660.0000 41.1966 305.0000
660.0000 43.8598 310.0000
660.0000 43.0635 315.0000
660.0000 42.4462 320.0000
660.0000 43.4217 325.0000
660.0000 42.9463 330.0000
660.0000 45.0518 335.0000
660.0000 40.5497 340.0000
660.0000 39.3230 345.0000
660.0000 38.3286 350.0000
660.0000 39.2039 355.0000
660.0000 36.6221 360.0000
660.0000 37.3931 365.0000
660.0000 39.4878 370.0000
660.0000 39.7001 375.0000
660.0000 38.3409 380.0000
660.0000 39.0900 385.0000
660.0000 34.3415 390.0000
660.0000 28.0939 395.0000
660.0000 33.4599 400.0000
660.0000 34.6281 405.0000
660.0000 33.3018 410.0000
660.0000 28.3369 415.0000
660.0000 35.2245 420.0000
660.0000 36.6719 425.0000
660.0000 31.4970 430.0000
660.0000 33.8595 435.0000
660.0000 45.1183 440.0000
660.0000 45.3301 445.0000
660.0000 45.1092 450.0000
660.0000 51.8412 455.0000
660.0000 52.6641 460.0000
660.0000 50.5782 465.0000
660.0000 49.2351 470.0000
660.0000 50.4869 475.0000
660.0000 58.4614 480.0000
660.0000 56.7122 485.0000
660.0000 53.4667 490.0000
660.0000 60.0399 495.0000
660.0000 59.4711 500.0000
660.0000 62.3312 505.0000
660.0000 60.5014 510.0000
660.0000 56.0832 515.0000
660.0000 54.1513 520.0000
660.0000 59.7911 525.0000
660.0000 57.8801 530.0000
660.0000 54.5575 535.0000
660.0000 55.2498 540.0000
660.0000 60.3557 545.0000
660.0000 60.5003 550.0000
660.0000 60.7167 555.0000
660.0000 58.7434 560.0000
660.0000 66.0471 565.0000
660.0000 60.5623 570.0000
660.0000 66.1140 575.0000
660.0000 68.8757 580.0000
660.0000 67.1475 585.0000
660.0000 58.9589 590.0000
660.0000 65.3325 595.0000
660.0000 61.9850 600.0000
665.0000 53.3007 0.0000
665.0000 51.3644 5.0000
665.0000 50.7508 10.0000
665.0000 49.8244 15.0000
665.0000 49.3282 20.0000
665.0000 49.6749 25.0000
665.0000 52.9663 30.0000
665.0000 52.4571 35.0000
665.0000 55.9676 40.0000
665.0000 54.1043 45.0000
665.0000 54.6585 50.0000
665.0000 54.2374 55.0000
665.0000 55.7919 60.0000
665.0000 56.6867 65.0000
665.0000 54.0034 70.0000
665.0000 55.4889 75.0000
665.0000 54.8975 80.0000
665.0000 55.7474 85.0000
665.0000 54.2341 90.0000
665.0000 54.2918 95.0000
665.0000 54.2302 100.0000
665.0000 52.1861 105.0000
665.0000 55.3504 110.0000
665.0000 53.5313 115.0000
665.0000 52.9471 120.0000
665.0000 51.0676 125.0000
665.0000 54.2812 130.0000
665.0000 53.9255 135.0000
665.0000 52.3423 140.0000
665.0000 54.1031 145.0000
665.0000 49.1831 150.0000
665.0000 48.3062 155.0000
665.0000 47.3731 160.0000
665.0000 47.8595 165.0000
665.0000 47.0266 170.0000
665.0000 48.0280 175.0000
665.0000 46.9747 180.0000
665.0000 48.3815 185.0000
665.0000 47.8823 190.0000
665.0000 48.8591 195.0000
665.0000 49.3909 200.0000
665.0000 46.3662 205.0000
665.0000 49.1393 210.0000
665.0000 49.3780 215.0000
665.0000 50.9234 220.0000
665.0000 48.5346 225.0000
665.0000 49.0716 230.0000
665.0000 46.0793 235.0000
665.0000 47.5049 240.0000
665.0000 46.3782 245.0000
665.0000 47.9676 250.0000
665.0000 47.8253 255.0000
665.0000 47.0092 260.0000
665.0000 46.0421 265.0000
665.0000 47.3185 270.0000
665.0000 47.0072 275.0000
665.0000 40.8381 280.0000
665.0000 44.5323 285.0000
665.0000 41.2705 290.0000
665.0000 42.1521 295.0000
665.0000 44.4028 300.0000
665.0000 45.4345 305.0000
665.0000 46.7670 310.0000
665.0000 47.8326 315.0000
665.0000 48.2690 320.0000
665.0000 41.6129 325.0000
665.0000 37.4165 330.0000
665.0000 39.1460 335.0000
665.0000 36.1604 340.0000
665.0000 34.7245 345.0000
665.0000 37.1461 350.0000
665.0000 34.9384 355.0000
665.0000 35.0860 360.0000
665.0000 36.0705 365.0000
665.0000 43.0111 370.0000
665.0000 39.7120 375.0000
665.0000 38.3639 380.0000
665.0000 37.2785 385.0000
665.0000 31.5424 390.0000
665.0000 29.3712 395.0000
665.0000 35.1271 400.0000
665.0000 27.5914 405.0000
665.0000 38.1616 410.0000
665.0000 30.5919 415.0000
665.0000 26.3786 420.0000
665.0000 33.8013 425.0000
665.0000 36.6228 430.0000
665.0000 35.4953 435.0000
665.0000 35.0963 440.0000
665.0000 49.3874 445.0000
665.0000 47.5234 450.0000
665.0000 51.0994 455.0000
665.0000 50.9726 460.0000
665.0000 48.0077 465.0000
665.0000 51.1007 470.0000
665.0000 57.3939 475.0000
665.0000 57.6415 480.0000
665.0000 55.0532 485.0000
665.0000 56.7862 490.0000
665.0000 58.7948 495.0000
665.0000 59.6800 500.0000
665.0000 58.0229 505.0000
665.0000 61.0185 510.0000
665.0000 58.9066 515.0000
665.0000 62.5557 520.0000
665.0000 55.8295 525.0000
665.0000 53.8270 530.0000
665.0000 54.1365 535.0000
665.0000 59.2727 540.0000
665.0000 57.5255 545.0000
665.0000 55.4805 550.0000
665.0000 56.1138 555.0000
665.0000 58.2153 560.0000
665.0000 61.1843 565.0000
665.0000 62.0177 570.0000
665.0000 61.2016 575.0000
665.0000 60.3648 580.0000
665.0000 61.5640 585.0000
665.0000 63.0339 590.0000
665.0000 60.0264 595.0000
665.0000 55.7767 600.0000
670.0000 50.5167 0.0000
670.0000 50.7025 5.0000
670.0000 50.7726 10.0000
670.0000 52.3273 15.0000
670.0000 51.8466 20.0000
670.0000 48.9787 25.0000
670.0000 51.8846 30.0000
670.0000 51.8928 35.0000
670.0000 51.8039 40.0000
670.0000 53.2422 45.0000
670.0000 53.1219 50.0000
670.0000 53.6883 55.0000
670.0000 52.3494 60.0000
670.0000 54.5615 65.0000
670.0000 51.8273 70.0000
670.0000 53.1034 75.0000
670.0000 54.0345 80.0000
670.0000 58.3491 85.0000
670.0000 54.2013 90.0000
670.0000 52.4335 95.0000
670.0000 53.0088 100.0000
670.0000 54.7181 105.0000
670.0000 48.7835 110.0000
670.0000 51.8584 115.0000
670.0000 48.3544 120.0000
670.0000 49.9540 125.0000
670.0000 47.5174 130.0000
670.0000 52.2611 135.0000
670.0000 50.4206 140.0000
670.0000 51.3204 145.0000
670.0000 50.0613 150.0000
670.0000 45.7233 155.0000
670.0000 46.5473 160.0000
670.0000 47.8376 165.0000
670.0000 45.2346 170.0000
670.0000 46.7565 175.0000
670.0000 46.8932 180.0000
670.0000 46.1816 185.0000
670.0000 45.1530 190.0000
670.0000 44.5368 195.0000
670.0000 47.0492 200.0000
670.0000 45.7868 205.0000
670.0000 48.5920 210.0000
670.0000 49.7259 215.0000
670.0000 49.4448 220.0000
670.0000 47.7326 225.0000
670.0000 48.8759 230.0000
670.0000 45.7725 235.0000
670.0000 47.1258 240.0000
670.0000 46.6252 245.0000
670.0000 48.1590 250.0000
670.0000 45.1967 255.0000
670.0000 48.0743 260.0000
670.0000 44.1252 265.0000
670.0000 43.1935 270.0000
670.0000 41.3829 275.0000
670.0000 42.6195 280.0000
670.0000 41.7464 285.0000
670.0000 43.9547 290.0000
670.0000 44.4791 295.0000
670.0000 47.3532 300.0000
670.0000 50.3500 305.0000
670.0000 49.9505 310.0000
670.0000 47.7951 315.0000
670.0000 44.1778 320.0000
670.0000 38.0710 325.0000
670.0000 34.5132 330.0000
670.0000 36.4255 335.0000
670.0000 34.2455 340.0000
670.0000 31.3995 345.0000
670.0000 33.6531 350.0000
670.0000 31.5402 355.0000
670.0000 35.2303 360.0000
670.0000 41.8807 365.0000
670.0000 46.7112 370.0000
670.0000 40.2172 375.0000
670.0000 36.9136 380.0000
670.0000 36.6590 385.0000
670.0000 28.6493 390.0000
670.0000 32.8974 395.0000
670.0000 38.1570 400.0000
670.0000 34.4874 405.0000
670.0000 36.1941 410.0000
670.0000 31.9046 415.0000
670.0000 24.8341 420.0000
670.0000 30.6462 425.0000
670.0000 42.0417 430.0000
670.0000 38.1574 435.0000
670.0000 37.0743 440.0000
670.0000 46.9804 445.0000
670.0000 49.7302 450.0000
670.0000 50.3862 455.0000
670.0000 47.8174 460.0000
670.0000 52.6150 465.0000
670.0000 55.4889 470.0000
670.0000 53.1152 475.0000
670.0000 55.0149 480.0000
670.0000 54.9396 485.0000
670.0000 53.9617 490.0000
670.0000 54.3782 495.0000
670.0000 56.8700 500.0000
670.0000 60.4816 505.0000
670.0000 56.6761 510.0000
670.0000 61.1112 515.0000
670.0000 61.5994 520.0000
670.0000 61.3600 525.0000
670.0000 53.2183 530.0000
670.0000 54.8742 535.0000
670.0000 56.4284 540.0000
670.0000 55.4027 545.0000
670.0000 57.4486 550.0000
670.0000 60.8674 555.0000
670.0000 58.5635 560.0000
670.0000 59.1921 565.0000
670.0000 58.8172 570.0000
670.0000 56.4932 575.0000
670.0000 55.7134 580.0000
670.0000 59.3399 585.0000
670.0000 59.5158 590.0000
670.0000 55.7883 595.0000
670.0000 55.3600 600.0000
675.0000 49.1718 0.0000
675.0000 50.2686 5.0000
675.0000 48.6114 10.0000
675.0000 48.1074 15.0000
675.0000 46.5377 20.0000
675.0000 49.6706 25.0000
675.0000 47.8942 30.0000
675.0000 47.5646 35.0000
675.0000 50.9994 40.0000
675.0000 51.0816 45.0000
675.0000 50.8306 50.0000
675.0000 54.5670 55.0000
675.0000 50.8473 60.0000
675.0000 52.4800 65.0000
675.0000 53.0889 70.0000
675.0000 50.9693 75.0000
675.0000 52.1147 80.0000
675.0000 54.5750 85.0000
675.0000 50.6697 90.0000
675.0000 51.9051 95.0000
675.0000 52.6151 100.0000
675.0000 51.6420 105.0000
675.0000 49.4890 110.0000
675.0000 50.8190 115.0000
675.0000 50.8968 120.0000
675.0000 49.4122 125.0000
675.0000 47.8680 130.0000
675.0000 50.5740 135.0000
675.0000 52.0505 140.0000
675.0000 50.3666 145.0000
675.0000 50.5830 150.0000
675.0000 46.9592 155.0000
675.0000 46.3361 160.0000
675.0000 46.5038 165.0000
675.0000 47.1591 170.0000
675.0000 45.5459 175.0000
675.0000 46.9407 180.0000
675.0000 43.7970 185.0000
675.0000 44.7793 190.0000
675.0000 46.5855 195.0000
675.0000 43.5427 200.0000
675.0000 46.1291 205.0000
675.0000 47.2326 210.0000
675.0000 45.2135 215.0000
675.0000 43.7957 220.0000
675.0000 46.7460 225.0000
675.0000 47.1107 230.0000
675.0000 45.4246 235.0000
675.0000 42.4953 240.0000
675.0000 45.5769 245.0000
675.0000 46.6065 250.0000
675.0000 41.2845 255.0000
675.0000 43.9301 260.0000
675.0000 40.7860 265.0000
675.0000 38.3019 270.0000
675.0000 42.0202 275.0000
675.0000 41.8234 280.0000
675.0000 39.2855 285.0000
675.0000 42.0939 290.0000
675.0000 43.1990 295.0000
675.0000 45.5466 300.0000
675.0000 47.5396 305.0000
675.0000 46.4980 310.0000
675.0000 42.8410 315.0000
675.0000 42.2308 320.0000
675.0000 40.4763 325.0000
675.0000 37.4277 330.0000
675.0000 36.8222 335.0000
675.0000 33.5939 340.0000
675.0000 32.6712 345.0000
675.0000 38.7446 350.0000
675.0000 36.2866 355.0000
675.0000 38.0512 360.0000
675.0000 39.8048 365.0000
675.0000 42.7461 370.0000
675.0000 38.1412 375.0000
675.0000 38.6700 380.0000
675.0000 35.0351 385.0000
675.0000 27.7269 390.0000
675.0000 34.5759 395.0000
675.0000 34.4343 400.0000
675.0000 30.2588 405.0000
675.0000 36.8743 410.0000
675.0000 33.9578 415.0000
675.0000 27.2483 420.0000
675.0000 35.4584 425.0000
675.0000 36.4538 430.0000
675.0000 39.8884 435.0000
675.0000 42.6374 440.0000
675.0000 49.0226 445.0000
675.0000 52.9040 450.0000
675.0000 50.6789 455.0000
675.0000 46.3552 460.0000
675.0000 52.2573 465.0000
675.0000 50.4163 470.0000
675.0000 53.3512 475.0000
675.0000 53.9561 480.0000
675.0000 53.2664 485.0000
675.0000 51.0337 490.0000
675.0000 51.1661 495.0000
675.0000 56.0347 500.0000
675.0000 56.4927 505.0000
675.0000 53.2054 510.0000
675.0000 56.2619 515.0000
675.0000 56.6715 520.0000
675.0000 54.6233 525.0000
675.0000 58.3014 530.0000
675.0000 57.4044 535.0000
675.0000 53.3620 540.0000
675.0000 53.0546 545.0000
675.0000 53.7973 550.0000
675.0000 59.5959 555.0000
675.0000 54.4034 560.0000
675.0000 53.6516 565.0000
675.0000 57.7470 570.0000
675.0000 59.2438 575.0000
675.0000 56.3039 580.0000
675.0000 64.1157 585.0000
675.0000 56.7376 590.0000
675.0000 53.4231 595.0000
675.0000 52.6320 600.0000
680.0000 46.3428 0.0000
680.0000 52.0406 5.0000
680.0000 46.3922 10.0000
680.0000 50.0788 15.0000
680.0000 47.5472 20.0000
680.0000 45.5106 25.0000
680.0000 43.4067 30.0000
680.0000 43.3812 35.0000
680.0000 47.8363 40.0000
680.0000 44.4012 45.0000
680.0000 48.6834 50.0000
680.0000 50.4593 55.0000
680.0000 47.8647 60.0000
680.0000 45.7526 65.0000
680.0000 49.9701 70.0000
680.0000 50.9502 75.0000
680.0000 50.4956 80.0000
680.0000 47.8565 85.0000
680.0000 51.5214 90.0000
680.0000 49.3726 95.0000
680.0000 48.1226 100.0000
680.0000 51.8078 105.0000
680.0000 51.9425 110.0000
680.0000 49.6322 115.0000
680.0000 50.2568 120.0000
680.0000 45.2840 125.0000
680.0000 46.3837 130.0000
680.0000 47.7884 135.0000
680.0000 46.8407 140.0000
680.0000 49.0903 145.0000
680.0000 47.1082 150.0000
680.0000 45.6568 155.0000
680.0000 45.2262 160.0000
680.0000 45.2158 165.0000
680.0000 43.6663 170.0000
680.0000 43.2089 175.0000
680.0000 44.7160 180.0000
680.0000 40.2452 185.0000
680.0000 39.8488 190.0000
680.0000 42.8800 195.0000
680.0000 44.1774 200.0000
680.0000 43.8885 205.0000
680.0000 42.1169 210.0000
680.0000 41.0432 215.0000
680.0000 45.5871 220.0000
680.0000 43.2983 225.0000
680.0000 38.2172 230.0000
680.0000 46.0738 235.0000
680.0000 41.4500 240.0000
680.0000 45.4482 245.0000
680.0000 42.5937 250.0000
680.0000 40.8558 255.0000
680.0000 36.9866 260.0000
680.0000 39.0001 265.0000
680.0000 37.1922 270.0000
680.0000 40.8426 275.0000
680.0000 39.6564 280.0000
680.0000 38.7777 285.0000
680.0000 42.3928 290.0000
680.0000 39.6626 295.0000
680.0000 37.3782 300.0000
680.0000 38.9675 305.0000
680.0000 40.2335 310.0000
680.0000 37.5149 315.0000
680.0000 40.0939 320.0000
680.0000 38.0790 325.0000
680.0000 37.1026 330.0000
680.0000 33.5115 335.0000
680.0000 34.8342 340.0000
680.0000 35.7363 345.0000
680.0000 34.4345 350.0000
680.0000 34.3825 355.0000
680.0000 35.8088 360.0000
680.0000 40.5262 365.0000
680.0000 41.9418 370.0000
680.0000 36.9410 375.0000
680.0000 33.9925 380.0000
680.0000 29.5686 385.0000
680.0000 29.8873 390.0000
680.0000 33.7572 395.0000
680.0000 28.4372 400.0000
680.0000 30.3223 405.0000
680.0000 31.3490 410.0000
680.0000 30.2820 415.0000
680.0000 23.1561 420.0000
680.0000 35.6389 425.0000
680.0000 34.2043 430.0000
680.0000 37.4457 435.0000
680.0000 43.4357 440.0000
680.0000 46.5032 445.0000
680.0000 47.2077 450.0000
680.0000 49.2582 455.0000
680.0000 44.9379 460.0000
680.0000 46.4626 465.0000
680.0000 46.5897 470.0000
680.0000 49.9296 475.0000
680.0000 54.0606 480.0000
680.0000 53.0710 485.0000
680.0000 53.1296 490.0000
680.0000 49.1642 495.0000
680.0000 49.5557 500.0000
680.0000 53.9626 505.0000
680.0000 55.9171 510.0000
680.0000 56.3330 515.0000
680.0000 58.2732 520.0000
680.0000 56.0966 525.0000
680.0000 52.2609 530.0000
680.0000 56.5511 535.0000
680.0000 55.7848 540.0000
680.0000 55.4997 545.0000
680.0000 52.9448 550.0000
680.0000 53.4671 555.0000
680.0000 52.4888 560.0000
680.0000 51.9720 565.0000
680.0000 53.5800 570.0000
680.0000 58.2707 575.0000
680.0000 51.7341 580.0000
680.0000 54.7998 585.0000
680.0000 51.1214 590.0000
680.0000 56.7521 595.0000
680.0000 56.8833 600.0000
685.0000 48.7593 0.0000
685.0000 47.1774 5.0000
685.0000 45.3141 10.0000
685.0000 50.6449 15.0000
685.0000 46.2915 20.0000
685.0000 45.3949 25.0000
685.0000 48.0583 30.0000
685.0000 44.9850 35.0000
685.0000 45.7682 40.0000
685.0000 46.2500 45.0000
685.0000 48.4902 50.0000
685.0000 50.9922 55.0000
685.0000 45.8583 60.0000
685.0000 47.8163 65.0000
685.0000 47.7205 70.0000
685.0000 47.0684 75.0000
685.0000 47.8755 80.0000
685.0000 45.3962 85.0000
685.0000 48.8270 90.0000
685.0000 46.3474 95.0000
685.0000 50.7802 100.0000
685.0000 50.6864 105.0000
685.0000 47.4334 110.0000
685.0000 50.2049 115.0000
685.0000 48.6453 120.0000
685.0000 46.7201 125.0000
685.0000 47.6252 130.0000
685.0000 42.9025 135.0000
685.0000 45.9621 140.0000
685.0000 46.9408 145.0000
685.0000 42.3504 150.0000
685.0000 45.3954 155.0000
685.0000 43.9435 160.0000
685.0000 45.8648 165.0000
685.0000 41.8071 170.0000
685.0000 40.9682 175.0000
685.0000 42.6952 180.0000
685.0000 41.2390 185.0000
685.0000 39.8388 190.0000
685.0000 41.3304 195.0000
685.0000 40.2126 200.0000
685.0000 38.3704 205.0000
685.0000 36.5401 210.0000
685.0000 38.9126 215.0000
685.0000 44.9470 220.0000
685.0000 44.2619 225.0000
685.0000 40.5637 230.0000
685.0000 42.1218 235.0000
685.0000 41.1578 240.0000
685.0000 43.4731 245.0000
685.0000 41.1106 250.0000
685.0000 38.0155 255.0000
685.0000 39.0676 260.0000
685.0000 40.9408 265.0000
685.0000 41.9331 270.0000
685.0000 39.0746 275.0000
685.0000 36.9534 280.0000
685.0000 38.8690 285.0000
685.0000 35.3514 290.0000
685.0000 35.7042 295.0000
685.0000 35.9169 300.0000
685.0000 35.5759 305.0000
685.0000 37.9966 310.0000
685.0000 37.9037 315.0000
685.0000 35.3274 320.0000
685.0000 36.5676 325.0000
685.0000 41.3238 330.0000
685.0000 37.9932 335.0000
685.0000 39.1263 340.0000
685.0000 37.2231 345.0000
685.0000 36.0277 350.0000
685.0000 36.6710 355.0000
685.0000 40.6250 360.0000
685.0000 40.4769 365.0000
685.0000 38.5618 370.0000
685.0000 37.8238 375.0000
685.0000 32.4145 380.0000
685.0000 28.2736 385.0000
685.0000 32.5514 390.0000
685.0000 35.0964 395.0000
685.0000 28.5850 400.0000
685.0000 28.0914 405.0000
685.0000 30.2237 410.0000
685.0000 23.7794 415.0000
685.0000 21.5820 420.0000
685.0000 31.6598 425.0000
685.0000 42.4665 430.0000
685.0000 39.1241 435.0000
685.0000 41.7524 440.0000
685.0000 43.8243 445.0000
685.0000 39.8733 450.0000
685.0000 42.0373 455.0000
685.0000 42.9446 460.0000
685.0000 45.3009 465.0000
685.0000 44.4193 470.0000
685.0000 52.3087 475.0000
685.0000 52.4749 480.0000
685.0000 53.3358 485.0000
685.0000 48.9784 490.0000
685.0000 52.2919 495.0000
685.0000 49.7192 500.0000
685.0000 54.2716 505.0000
685.0000 53.4677 510.0000
685.0000 48.1631 515.0000
685.0000 49.7498 520.0000
685.0000 56.0173 525.0000
685.0000 51.5917 530.0000
685.0000 48.5978 535.0000
685.0000 50.8968 540.0000
685.0000 50.4398 545.0000
685.0000 48.9281 550.0000
685.0000 51.6633 555.0000
685.0000 49.7706 560.0000
685.0000 52.4559 565.0000
685.0000 57.7102 570.0000
685.0000 55.6751 575.0000
685.0000 51.8280 580.0000
685.0000 58.9421 585.0000
685.0000 55.4872 590.0000
685.0000 54.2280 595.0000
685.0000 53.6900 600.0000
690.0000 44.0488 0.0000
690.0000 46.9652 5.0000
690.0000 47.8898 10.0000
690.0000 51.2996 15.0000
690.0000 45.9834 20.0000
690.0000 44.1475 25.0000
690.0000 42.8112 30.0000
690.0000 44.3483 35.0000
690.0000 44.8865 40.0000
690.0000 43.7416 45.0000
690.0000 47.1292 50.0000
690.0000 47.7383 55.0000
690.0000 46.3725 60.0000
690.0000 46.9846 65.0000
690.0000 45.5479 70.0000
690.0000 41.7790 75.0000
690.0000 45.0696 80.0000
690.0000 45.8231 85.0000
690.0000 46.9439 90.0000
690.0000 46.5755 95.0000
690.0000 49.8822 100.0000
690.0000 48.3560 105.0000
690.0000 46.8829 110.0000
690.0000 47.6852 115.0000
690.0000 43.6744 120.0000
690.0000 42.3237 125.0000
690.0000 46.7908 130.0000
690.0000 43.0214 135.0000
690.0000 43.1692 140.0000
690.0000 43.3227 145.0000
690.0000 42.2329 150.0000
690.0000 43.8168 155.0000
690.0000 43.9741 160.0000
690.0000 42.0938 165.0000
690.0000 40.3677 170.0000
690.0000 40.5618 175.0000
690.0000 40.9923 180.0000
690.0000 41.7257 185.0000
690.0000 39.3001 190.0000
690.0000 41.1204 195.0000
690.0000 41.3903 200.0000
690.0000 43.5890 205.0000
690.0000 39.0941 210.0000
690.0000 35.5133 215.0000
690.0000 43.0542 220.0000
690.0000 41.5218 225.0000
690.0000 42.2527 230.0000
690.0000 41.9110 235.0000
690.0000 40.0667 240.0000
690.0000 40.9321 245.0000
690.0000 40.4219 250.0000
690.0000 38.6016 255.0000
690.0000 34.1135 260.0000
690.0000 40.3212 265.0000
690.0000 40.2737 270.0000
690.0000 37.1928 275.0000
690.0000 30.3507 280.0000
690.0000 32.1777 285.0000
690.0000 32.0074 290.0000
690.0000 32.0538 295.0000
690.0000 32.2108 300.0000
690.0000 32.2237 305.0000
690.0000 33.8256 310.0000
690.0000 33.2666 315.0000
690.0000 35.8785 320.0000
690.0000 37.7168 325.0000
690.0000 39.1624 330.0000
690.0000 42.0209 335.0000
690.0000 41.1645 340.0000
690.0000 39.7820 345.0000
690.0000 40.8879 350.0000
690.0000 36.9007 355.0000
690.0000 40.6458 360.0000
690.0000 36.0859 365.0000
690.0000 35.5652 370.0000
690.0000 34.8545 375.0000
690.0000 31.1368 380.0000
690.0000 27.4080 385.0000
690.0000 31.4316 390.0000
690.0000 31.4985 395.0000
690.0000 28.7709 400.0000
690.0000 28.6489 405.0000
690.0000 33.4703 410.0000
690.0000 23.4494 415.0000
690.0000 19.2074 420.0000
690.0000 29.9052 425.0000
690.0000 32.1156 430.0000
690.0000 30.8669 435.0000
690.0000 37.6293 440.0000
690.0000 36.1145 445.0000
690.0000 36.8638 450.0000
690.0000 40.9712 455.0000
690.0000 45.1700 460.0000
690.0000 47.5796 465.0000
690.0000 47.2783 470.0000
690.0000 49.1125 475.0000
690.0000 52.2722 480.0000
690.0000 51.5936 485.0000
690.0000 50.3648 490.0000
690.0000 49.6033 495.0000
690.0000 44.7995 500.0000
690.0000 50.9844 505.0000
690.0000 51.1842 510.0000
690.0000 52.0237 515.0000
690.0000 53.1917 520.0000
690.0000 53.6728 525.0000
690.0000 50.7422 530.0000
690.0000 54.7948 535.0000
690.0000 56.4079 540.0000
690.0000 51.2842 545.0000
690.0000 52.6456 550.0000
690.0000 48.9885 555.0000
690.0000 46.6466 560.0000
690.0000 48.3154 565.0000
690.0000 53.8208 570.0000
690.0000 48.0503 575.0000
690.0000 49.8269 580.0000
690.0000 54.1419 585.0000
690.0000 50.7877 590.0000
690.0000 51.0580 595.0000
690.0000 48.7100 600.0000
695.0000 43.4855 0.0000
695.0000 41.1358 5.0000
695.0000 48.1581 10.0000
695.0000 48.5001 15.0000
695.0000 42.5640 20.0000
695.0000 45.8210 25.0000
695.0000 43.0608 30.0000
695.0000 41.8419 35.0000
695.0000 44.3085 40.0000
695.0000 44.5718 45.0000
695.0000 43.4165 50.0000
695.0000 44.2901 55.0000
695.0000 43.8659 60.0000
695.0000 45.7897 65.0000
695.0000 42.2190 70.0000
695.0000 46.3038 75.0000
695.0000 43.9519 80.0000
695.0000 45.0848 85.0000
695.0000 46.8882 90.0000
695.0000 43.7951 95.0000
695.0000 45.0807 100.0000
695.0000 45.6795 105.0000
695.0000 43.0333 110.0000
695.0000 44.7291 115.0000
695.0000 44.8060 120.0000
695.0000 38.9407 125.0000
695.0000 43.9564 130.0000
695.0000 41.3140 135.0000
695.0000 43.4871 140.0000
695.0000 38.2558 145.0000
695.0000 37.5230 150.0000
695.0000 40.1890 155.0000
695.0000 41.5223 160.0000
695.0000 37.4475 165.0000
695.0000 39.2582 170.0000
695.0000 41.7163 175.0000
695.0000 40.4784 180.0000
695.0000 41.3342 185.0000
695.0000 41.3700 190.0000
695.0000 40.7481 195.0000
695.0000 41.8932 200.0000
695.0000 43.7257 205.0000
695.0000 40.0790 210.0000
695.0000 36.6204 215.0000
695.0000 39.7628 220.0000
695.0000 38.2015 225.0000
695.0000 41.9804 230.0000
695.0000 38.8335 235.0000
695.0000 39.8757 240.0000
695.0000 40.4706 245.0000
695.0000 42.1383 250.0000
695.0000 36.4703 255.0000
695.0000 33.4597 260.0000
695.0000 32.4171 265.0000
695.0000 30.6224 270.0000
695.0000 29.2906 275.0000
695.0000 29.7311 280.0000
695.0000 32.1112 285.0000
695.0000 32.5718 290.0000
695.0000 29.7720 295.0000
695.0000 34.1302 300.0000
695.0000 33.7289 305.0000
695.0000 31.8272 310.0000
695.0000 33.1401 315.0000
695.0000 38.3852 320.0000
695.0000 36.0853 325.0000
695.0000 37.5567 330.0000
695.0000 38.0809 335.0000
695.0000 41.7632 340.0000
695.0000 39.8700 345.0000
695.0000 39.6165 350.0000
695.0000 34.3408 355.0000
695.0000 33.9636 360.0000
695.0000 36.3646 365.0000
695.0000 36.1798 370.0000
695.0000 37.3370 375.0000
695.0000 31.2114 380.0000
695.0000 30.3076 385.0000
695.0000 32.5183 390.0000
695.0000 27.3227 395.0000
695.0000 26.9913 400.0000
695.0000 28.1100 405.0000
695.0000 27.6345 410.0000
695.0000 31.0852 415.0000
695.0000 21.6671 420.0000
695.0000 23.5515 425.0000
695.0000 27.7899 430.0000
695.0000 25.7919 435.0000
695.0000 31.3868 440.0000
695.0000 33.6090 445.0000
695.0000 33.7257 450.0000
695.0000 37.8466 455.0000
695.0000 43.7561 460.0000
695.0000 48.2559 465.0000
695.0000 48.9999 470.0000
695.0000 42.7148 475.0000
695.0000 44.1593 480.0000
695.0000 47.7855 485.0000
695.0000 46.9473 490.0000
695.0000 44.0653 495.0000
695.0000 43.9678 500.0000
695.0000 44.0647 505.0000
695.0000 44.0180 510.0000
695.0000 44.2475 515.0000
695.0000 44.8581 520.0000
695.0000 49.5601 525.0000
695.0000 49.2501 530.0000
695.0000 48.0507 535.0000
695.0000 49.1701 540.0000
695.0000 46.7488 545.0000
695.0000 49.7145 550.0000
695.0000 47.7003 555.0000
695.0000 46.0682 560.0000
695.0000 45.6768 565.0000
695.0000 46.4231 570.0000
695.0000 52.9688 575.0000
695.0000 47.5541 580.0000
695.0000 50.6803 585.0000
695.0000 54.2078 590.0000
695.0000 51.5171 595.0000
695.0000 51.8611 600.0000
700.0000 42.5210 0.0000
700.0000 38.2638 5.0000
700.0000 41.0298 10.0000
700.0000 43.3535 15.0000
700.0000 46.1547 20.0000
700.0000 45.1208 25.0000
700.0000 42.3934 30.0000
700.0000 41.9429 35.0000
700.0000 40.7044 40.0000
700.0000 42.5129 45.0000
700.0000 44.1655 50.0000
700.0000 44.1518 55.0000
700.0000 41.4180 60.0000
700.0000 43.6261 65.0000
700.0000 41.4948 70.0000
700.0000 45.4671 75.0000
700.0000 45.7490 80.0000
700.0000 40.2248 85.0000
700.0000 45.5070 90.0000
700.0000 44.4480 95.0000
700.0000 40.3293 100.0000
700.0000 41.2195 105.0000
700.0000 43.4173 110.0000
700.0000 44.2404 115.0000
700.0000 40.2447 120.0000
700.0000 38.5054 125.0000
700.0000 39.2172 130.0000
700.0000 35.1096 135.0000
700.0000 37.0069 140.0000
700.0000 34.6867 145.0000
700.0000 35.3483 150.0000
700.0000 34.7570 155.0000
700.0000 38.4947 160.0000
700.0000 39.3410 165.0000
700.0000 40.0254 170.0000
700.0000 41.4246 175.0000
700.0000 38.7046 180.0000
700.0000 38.5523 185.0000
700.0000 37.9051 190.0000
700.0000 37.7453 195.0000
700.0000 39.0302 200.0000
700.0000 35.3831 205.0000
700.0000 33.7180 210.0000
700.0000 36.0868 215.0000
700.0000 37.6586 220.0000
700.0000 41.0754 225.0000
700.0000 39.0634 230.0000
700.0000 35.0186 235.0000
700.0000 38.0091 240.0000
700.0000 37.3633 245.0000
700.0000 35.2563 250.0000
700.0000 31.7984 255.0000
700.0000 32.8468 260.0000
700.0000 33.5858 265.0000
700.0000 29.4617 270.0000
700.0000 29.3165 275.0000
700.0000 29.5408 280.0000
700.0000 33.4796 285.0000
700.0000 36.7350 290.0000
700.0000 36.0117 295.0000
700.0000 36.6477 300.0000
700.0000 39.0640 305.0000
700.0000 38.4819 310.0000
700.0000 39.0680 315.0000
700.0000 40.3835 320.0000
700.0000 37.1866 325.0000
700.0000 41.1316 330.0000
700.0000 40.0612 335.0000
700.0000 35.8677 340.0000
700.0000 33.9594 345.0000
700.0000 37.9848 350.0000
700.0000 35.1809 355.0000
700.0000 32.5524 360.0000
700.0000 37.2961 365.0000
700.0000 34.2658 370.0000
700.0000 32.4869 375.0000
700.0000 31.3670 380.0000
700.0000 27.5149 385.0000
700.0000 31.9962 390.0000
700.0000 26.8571 395.0000
700.0000 27.9764 400.0000
700.0000 27.0461 405.0000
700.0000 29.7192 410.0000
700.0000 25.9386 415.0000
700.0000 16.6903 420.0000
700.0000 18.3791 425.0000
700.0000 26.7472 430.0000
700.0000 30.5042 435.0000
700.0000 26.2435 440.0000
700.0000 26.6747 445.0000
700.0000 34.9045 450.0000
700.0000 39.2972 455.0000
