1725
573.7374 109.0909 -243.3418
573.7374 115.1515 -242.6165
573.7374 121.2121 -245.6514
573.7374 127.2727 -245.2261
573.7374 133.3333 -245.0412
573.7374 139.3939 -241.7555
573.7374 145.4545 -243.9984
573.7374 151.5152 -244.8041
573.7374 157.5758 -246.2023
573.7374 163.6364 -246.9971
573.7374 169.6970 -245.9851
573.7374 175.7576 -247.6171
573.7374 181.8182 -246.4099
573.7374 187.8788 -245.6611
573.7374 193.9394 -247.2784
573.7374 200.0000 -249.1636
573.7374 206.0606 -250.3408
573.7374 212.1212 -252.2149
573.7374 218.1818 -253.2515
573.7374 224.2424 -253.4322
573.7374 230.3030 -253.8329
573.7374 236.3636 -255.2884
573.7374 242.4242 -255.7187
573.7374 248.4848 -255.3194
573.7374 254.5455 -256.0460
573.7374 260.6060 -256.2815
573.7374 266.6667 -256.3135
573.7374 272.7273 -256.5063
573.7374 278.7879 -256.9203
573.7374 284.8485 -257.3638
573.7374 290.9091 -257.7568
573.7374 296.9697 -258.4149
573.7374 303.0303 -258.8587
573.7374 309.0909 -260.5268
573.7374 315.1515 -261.9990
573.7374 321.2121 -263.4354
573.7374 327.2727 -262.6419
573.7374 333.3333 -263.3072
573.7374 339.3939 -262.3835
573.7374 345.4545 -263.8853
573.7374 351.5151 -264.3160
573.7374 357.5757 -264.1076
573.7374 363.6364 -264.4521
573.7374 369.6970 -264.9190
573.7374 375.7576 -266.3723
573.7374 381.8182 -267.2897
573.7374 387.8788 -272.0272
573.7374 393.9394 -271.4168
573.7374 400.0000 -271.4349
573.7374 406.0606 -270.4655
573.7374 412.1212 -270.3850
573.7374 418.1818 -273.2201
573.7374 424.2424 -276.2619
573.7374 430.3030 -274.8633
573.7374 436.3636 -279.2273
573.7374 442.4242 -278.3493
573.7374 448.4848 -280.5637
573.7374 454.5454 -282.8381
573.7374 460.6060 -276.9918
573.7374 466.6667 -286.1320
573.7374 472.7273 -279.1441
573.7374 478.7879 -270.6478
573.7374 484.8485 -270.4589
573.7374 490.9091 -265.1600
573.7374 496.9697 -269.2624
573.7374 503.0303 -263.6429
573.7374 509.0909 -261.0033
573.7374 515.1515 -254.7174
573.7374 521.2121 -250.8925
573.7374 527.2727 -245.9355
573.7374 533.3333 -241.7535
573.7374 539.3939 -245.2603
573.7374 545.4545 -239.6222
573.7374 551.5151 -243.0692
573.7374 557.5757 -238.2530
573.7374 563.6364 -234.3037
573.7374 569.6970 -235.6662
573.7374 575.7576 -232.5019
573.7374 581.8182 -234.8033
573.7374 587.8788 -232.7613
573.7374 593.9394 -229.7100
573.7374 600.0000 -230.9000
581.8182 0.0000 -243.4274
581.8182 6.0606 -243.2762
581.8182 12.1212 -241.5878
581.8182 18.1818 -240.2864
581.8182 24.2424 -238.9767
581.8182 30.3030 -239.7599
581.8182 36.3636 -244.5353
581.8182 42.4242 -245.7521
581.8182 48.4848 -246.5403
581.8182 54.5455 -245.0580
581.8182 60.6061 -244.0411
581.8182 66.6667 -247.0076
581.8182 72.7273 -244.4180
581.8182 78.7879 -243.1378
581.8182 84.8485 -248.0224
581.8182 90.9091 -243.2954
581.8182 96.9697 -243.4829
581.8182 103.0303 -246.0182
581.8182 109.0909 -243.8691
581.8182 115.1515 -245.2568
581.8182 121.2121 -242.4896
581.8182 127.2727 -246.8376
581.8182 133.3333 -247.6556
581.8182 139.3939 -246.4625
581.8182 145.4545 -246.3675
581.8182 151.5152 -248.1709
581.8182 157.5758 -247.7166
581.8182 163.6364 -249.7002
581.8182 169.6970 -249.1111
581.8182 175.7576 -250.1253
581.8182 181.8182 -249.3305
581.8182 187.8788 -248.2365
581.8182 193.9394 -250.0533
581.8182 200.0000 -249.5437
581.8182 206.0606 -252.3827
581.8182 212.1212 -253.0661
581.8182 218.1818 -254.4538
581.8182 224.2424 -255.7100
581.8182 230.3030 -256.7751
581.8182 236.3636 -257.1406
581.8182 242.4242 -256.9205
581.8182 248.4848 -257.4027
581.8182 254.5455 -256.7231
581.8182 260.6060 -257.2247
581.8182 266.6667 -258.2450
581.8182 272.7273 -257.6749
581.8182 278.7879 -257.5818
581.8182 284.8485 -259.1312
581.8182 290.9091 -259.5831
581.8182 296.9697 -258.6068
581.8182 303.0303 -259.4378
581.8182 309.0909 -259.4666
581.8182 315.1515 -260.8417
581.8182 321.2121 -263.9847
581.8182 327.2727 -260.1642
581.8182 333.3333 -261.7291
581.8182 339.3939 -262.3666
581.8182 345.4545 -264.5294
581.8182 351.5151 -260.7287
581.8182 357.5757 -263.3586
581.8182 363.6364 -267.3453
581.8182 369.6970 -268.0120
581.8182 375.7576 -268.6575
581.8182 381.8182 -268.7885
581.8182 387.8788 -274.0522
581.8182 393.9394 -271.9848
581.8182 400.0000 -271.0436
581.8182 406.0606 -272.6153
581.8182 412.1212 -272.9998
581.8182 418.1818 -272.8896
581.8182 424.2424 -274.1968
581.8182 430.3030 -278.6944
581.8182 436.3636 -282.6005
581.8182 442.4242 -278.6241
581.8182 448.4848 -280.5080
581.8182 454.5454 -278.8328
581.8182 460.6060 -281.8304
581.8182 466.6667 -284.8077
581.8182 472.7273 -273.9573
581.8182 478.7879 -272.8512
581.8182 484.8485 -271.4554
581.8182 490.9091 -265.7738
581.8182 496.9697 -265.2918
581.8182 503.0303 -266.3497
581.8182 509.0909 -261.0072
581.8182 515.1515 -246.9245
581.8182 521.2121 -249.0181
581.8182 527.2727 -244.2286
581.8182 533.3333 -242.6738
581.8182 539.3939 -247.1311
581.8182 545.4545 -241.1519
581.8182 551.5151 -243.4079
581.8182 557.5757 -236.2492
581.8182 563.6364 -240.2270
581.8182 569.6970 -238.7044
581.8182 575.7576 -235.7899
581.8182 581.8182 -229.3877
581.8182 587.8788 -231.7212
581.8182 593.9394 -225.4764
581.8182 600.0000 -228.6792
589.8990 0.0000 -245.7179
589.8990 6.0606 -246.0332
589.8990 12.1212 -243.1526
589.8990 18.1818 -244.5506
589.8990 24.2424 -247.5705
589.8990 30.3030 -244.8031
589.8990 36.3636 -246.5729
589.8990 42.4242 -250.3906
589.8990 48.4848 -250.4564
589.8990 54.5455 -249.3570
589.8990 60.6061 -249.1173
589.8990 66.6667 -250.6303
589.8990 72.7273 -247.1866
589.8990 78.7879 -245.0243
589.8990 84.8485 -247.7158
589.8990 90.9091 -250.2998
589.8990 96.9697 -247.6411
589.8990 103.0303 -247.6976
589.8990 109.0909 -247.2666
589.8990 115.1515 -248.5560
589.8990 121.2121 -247.9396
589.8990 127.2727 -249.2392
589.8990 133.3333 -247.1781
589.8990 139.3939 -246.8695
589.8990 145.4545 -249.6922
589.8990 151.5152 -250.6134
589.8990 157.5758 -249.6877
589.8990 163.6364 -250.1772
589.8990 169.6970 -249.1970
589.8990 175.7576 -249.0513
589.8990 181.8182 -249.8629
589.8990 187.8788 -248.5441
589.8990 193.9394 -250.8540
589.8990 200.0000 -251.1766
589.8990 206.0606 -254.8931
589.8990 212.1212 -254.9329
589.8990 218.1818 -254.8149
589.8990 224.2424 -256.9263
589.8990 230.3030 -256.0449
589.8990 236.3636 -258.1335
589.8990 242.4242 -258.5035
589.8990 248.4848 -258.5611
589.8990 254.5455 -258.2575
589.8990 260.6060 -258.8227
589.8990 266.6667 -259.4197
589.8990 272.7273 -259.8813
589.8990 278.7879 -258.5034
589.8990 284.8485 -258.9657
589.8990 290.9091 -259.8817
589.8990 296.9697 -262.1850
589.8990 303.0303 -261.3699
589.8990 309.0909 -262.1419
589.8990 315.1515 -263.6613
589.8990 321.2121 -262.1675
589.8990 327.2727 -257.0849
589.8990 333.3333 -265.0001
589.8990 339.3939 -262.6841
589.8990 345.4545 -266.1245
589.8990 351.5151 -265.1947
589.8990 357.5757 -268.9476
589.8990 363.6364 -268.8438
589.8990 369.6970 -270.7891
589.8990 375.7576 -270.2611
589.8990 381.8182 -267.8793
589.8990 387.8788 -272.9774
589.8990 393.9394 -270.3405
589.8990 400.0000 -270.5305
589.8990 406.0606 -274.7769
589.8990 412.1212 -272.4138
589.8990 418.1818 -271.9129
589.8990 424.2424 -279.2000
589.8990 430.3030 -281.2495
589.8990 436.3636 -280.4803
589.8990 442.4242 -277.5992
589.8990 448.4848 -282.3189
589.8990 454.5454 -287.5107
589.8990 460.6060 -280.6680
589.8990 466.6667 -279.4597
589.8990 472.7273 -271.7187
589.8990 478.7879 -272.7124
589.8990 484.8485 -263.7596
589.8990 490.9091 -263.5937
589.8990 496.9697 -259.9718
589.8990 503.0303 -258.3375
589.8990 509.0909 -254.5919
589.8990 515.1515 -247.2333
589.8990 521.2121 -243.3363
589.8990 527.2727 -243.1111
589.8990 533.3333 -242.8447
589.8990 539.3939 -240.6303
589.8990 545.4545 -240.5558
589.8990 551.5151 -243.9397
589.8990 557.5757 -241.7906
589.8990 563.6364 -241.0033
589.8990 569.6970 -239.1517
589.8990 575.7576 -238.5755
589.8990 581.8182 -235.7514
589.8990 587.8788 -232.3155
589.8990 593.9394 -230.1034
589.8990 600.0000 -223.9720
597.9798 0.0000 -248.7964
597.9798 6.0606 -249.2715
597.9798 12.1212 -249.3374
597.9798 18.1818 -249.9001
597.9798 24.2424 -247.0411
597.9798 30.3030 -249.0756
597.9798 36.3636 -247.2761
597.9798 42.4242 -249.4593
597.9798 48.4848 -249.4583
597.9798 54.5455 -249.3130
597.9798 60.6061 -249.5743
597.9798 66.6667 -247.0343
597.9798 72.7273 -244.7806
597.9798 78.7879 -247.1786
597.9798 84.8485 -247.7077
597.9798 90.9091 -246.2548
597.9798 96.9697 -248.8312
597.9798 103.0303 -248.3374
597.9798 109.0909 -248.3561
597.9798 115.1515 -250.0697
597.9798 121.2121 -249.4868
597.9798 127.2727 -250.5376
597.9798 133.3333 -249.9509
597.9798 139.3939 -251.3087
597.9798 145.4545 -250.8543
597.9798 151.5152 -251.2305
597.9798 157.5758 -248.6332
597.9798 163.6364 -250.3375
597.9798 169.6970 -250.5387
597.9798 175.7576 -249.5942
597.9798 181.8182 -251.9566
597.9798 187.8788 -250.5022
597.9798 193.9394 -251.9482
597.9798 200.0000 -254.5662
597.9798 206.0606 -254.7032
597.9798 212.1212 -257.4857
597.9798 218.1818 -256.9369
597.9798 224.2424 -254.9062
597.9798 230.3030 -255.8425
597.9798 236.3636 -255.7092
597.9798 242.4242 -257.8338
597.9798 248.4848 -258.7644
597.9798 254.5455 -257.9827
597.9798 260.6060 -258.2240
597.9798 266.6667 -259.8849
597.9798 272.7273 -263.1183
597.9798 278.7879 -260.4710
597.9798 284.8485 -260.1703
597.9798 290.9091 -263.5425
597.9798 296.9697 -260.1487
597.9798 303.0303 -257.4454
597.9798 309.0909 -262.0524
597.9798 315.1515 -263.6545
597.9798 321.2121 -264.7790
597.9798 327.2727 -265.5179
597.9798 333.3333 -267.7029
597.9798 339.3939 -265.0686
597.9798 345.4545 -270.7037
597.9798 351.5151 -269.3216
597.9798 357.5757 -267.1792
597.9798 363.6364 -270.7921
597.9798 369.6970 -270.6061
597.9798 375.7576 -269.3242
597.9798 381.8182 -270.8635
597.9798 387.8788 -272.3302
597.9798 393.9394 -269.6162
597.9798 400.0000 -271.7381
597.9798 406.0606 -274.2702
597.9798 412.1212 -272.9380
597.9798 418.1818 -274.1761
597.9798 424.2424 -281.7289
597.9798 430.3030 -282.8394
597.9798 436.3636 -275.8711
597.9798 442.4242 -283.7747
597.9798 448.4848 -287.4745
597.9798 454.5454 -279.1023
597.9798 460.6060 -273.9464
597.9798 466.6667 -273.5584
597.9798 472.7273 -271.9148
597.9798 478.7879 -269.0193
597.9798 484.8485 -267.5293
597.9798 490.9091 -263.1557
597.9798 496.9697 -258.3628
597.9798 503.0303 -253.2959
597.9798 509.0909 -253.1076
597.9798 515.1515 -254.1813
597.9798 521.2121 -246.3412
597.9798 527.2727 -241.5450
597.9798 533.3333 -242.8142
597.9798 539.3939 -238.4614
597.9798 545.4545 -240.2824
597.9798 551.5151 -244.6502
597.9798 557.5757 -243.1279
597.9798 563.6364 -239.3391
597.9798 569.6970 -239.8657
597.9798 575.7576 -240.5624
597.9798 581.8182 -235.1494
597.9798 587.8788 -234.3403
597.9798 593.9394 -234.3086
597.9798 600.0000 -229.6920
606.0605 0.0000 -250.8139
606.0605 6.0606 -251.6473
606.0605 12.1212 -248.9358
606.0605 18.1818 -252.0134
606.0605 24.2424 -251.2251
606.0605 30.3030 -250.5169
606.0605 36.3636 -250.2301
606.0605 42.4242 -248.7316
606.0605 48.4848 -249.9057
606.0605 54.5455 -248.8069
606.0605 60.6061 -248.2709
606.0605 66.6667 -249.6499
606.0605 72.7273 -247.7969
606.0605 78.7879 -249.6203
606.0605 84.8485 -249.7512
606.0605 90.9091 -249.1930
606.0605 96.9697 -249.6419
606.0605 103.0303 -248.3603
606.0605 109.0909 -252.0490
606.0605 115.1515 -252.5804
606.0605 121.2121 -252.2288
606.0605 127.2727 -252.4979
606.0605 133.3333 -251.2304
606.0605 139.3939 -253.1117
606.0605 145.4545 -251.7591
606.0605 151.5152 -254.8222
606.0605 157.5758 -252.0535
606.0605 163.6364 -255.3472
606.0605 169.6970 -255.9354
606.0605 175.7576 -256.3601
606.0605 181.8182 -255.3271
606.0605 187.8788 -254.7111
606.0605 193.9394 -257.0511
606.0605 200.0000 -254.6127
606.0605 206.0606 -255.1999
606.0605 212.1212 -258.6354
606.0605 218.1818 -258.9372
606.0605 224.2424 -258.0668
606.0605 230.3030 -257.4864
606.0605 236.3636 -258.5547
606.0605 242.4242 -260.2377
606.0605 248.4848 -261.1237
606.0605 254.5455 -261.6645
606.0605 260.6060 -261.3573
606.0605 266.6667 -261.9171
606.0605 272.7273 -262.9785
606.0605 278.7879 -262.6119
606.0605 284.8485 -262.3319
606.0605 290.9091 -265.0804
606.0605 296.9697 -264.4746
606.0605 303.0303 -263.6144
606.0605 309.0909 -261.1852
606.0605 315.1515 -266.6062
606.0605 321.2121 -267.0561
606.0605 327.2727 -267.4476
606.0605 333.3333 -268.8796
606.0605 339.3939 -269.1388
606.0605 345.4545 -269.2034
606.0605 351.5151 -269.6226
606.0605 357.5757 -271.6248
606.0605 363.6364 -270.6236
606.0605 369.6970 -269.6706
606.0605 375.7576 -268.9189
606.0605 381.8182 -272.1802
606.0605 387.8788 -271.2140
606.0605 393.9394 -271.2663
606.0605 400.0000 -273.4871
606.0605 406.0606 -273.1421
606.0605 412.1212 -273.9114
606.0605 418.1818 -278.6185
606.0605 424.2424 -281.8075
606.0605 430.3030 -276.6149
606.0605 436.3636 -284.5591
606.0605 442.4242 -280.1382
606.0605 448.4848 -274.5254
606.0605 454.5454 -270.5089
606.0605 460.6060 -280.2670
606.0605 466.6667 -274.8624
606.0605 472.7273 -265.4062
606.0605 478.7879 -269.0746
606.0605 484.8485 -266.1639
606.0605 490.9091 -266.1276
606.0605 496.9697 -262.0615
606.0605 503.0303 -252.8518
606.0605 509.0909 -252.0008
606.0605 515.1515 -253.4732
606.0605 521.2121 -246.7179
606.0605 527.2727 -244.7587
606.0605 533.3333 -242.2960
606.0605 539.3939 -239.2671
606.0605 545.4545 -245.4737
606.0605 551.5151 -242.2493
606.0605 557.5757 -244.9406
606.0605 563.6364 -243.7668
606.0605 569.6970 -243.0743
606.0605 575.7576 -236.2673
606.0605 581.8182 -235.3465
606.0605 587.8788 -232.3618
606.0605 593.9394 -235.2704
606.0605 600.0000 -228.0367
614.1414 0.0000 -253.0182
614.1414 6.0606 -252.3445
614.1414 12.1212 -251.1058
614.1414 18.1818 -252.2402
614.1414 24.2424 -249.3830
614.1414 30.3030 -251.8995
614.1414 36.3636 -250.7200
614.1414 42.4242 -247.4681
614.1414 48.4848 -248.4065
614.1414 54.5455 -249.1599
614.1414 60.6061 -247.4408
614.1414 66.6667 -247.6904
614.1414 72.7273 -250.2274
614.1414 78.7879 -249.8905
614.1414 84.8485 -248.2081
614.1414 90.9091 -250.1202
614.1414 96.9697 -252.3955
614.1414 103.0303 -250.6709
614.1414 109.0909 -252.8237
614.1414 115.1515 -251.9658
614.1414 121.2121 -255.1944
614.1414 127.2727 -255.6019
614.1414 133.3333 -255.1776
614.1414 139.3939 -255.8389
614.1414 145.4545 -255.7962
614.1414 151.5152 -256.4625
614.1414 157.5758 -256.2959
614.1414 163.6364 -256.6748
614.1414 169.6970 -256.8943
614.1414 175.7576 -258.1077
614.1414 181.8182 -258.5079
614.1414 187.8788 -256.9442
614.1414 193.9394 -256.6782
614.1414 200.0000 -254.3201
614.1414 206.0606 -254.8297
614.1414 212.1212 -256.2594
614.1414 218.1818 -258.3812
614.1414 224.2424 -260.1080
614.1414 230.3030 -257.2974
614.1414 236.3636 -259.7989
614.1414 242.4242 -258.9964
614.1414 248.4848 -260.1548
614.1414 254.5455 -262.0911
614.1414 260.6060 -264.2134
614.1414 266.6667 -262.2888
614.1414 272.7273 -265.6604
614.1414 278.7879 -263.4388
614.1414 284.8485 -267.0242
614.1414 290.9091 -266.6543
614.1414 296.9697 -267.8014
614.1414 303.0303 -268.1085
614.1414 309.0909 -268.0102
614.1414 315.1515 -267.4418
614.1414 321.2121 -267.4821
614.1414 327.2727 -266.1966
614.1414 333.3333 -265.8053
614.1414 339.3939 -268.7238
614.1414 345.4545 -269.2445
614.1414 351.5151 -270.3239
614.1414 357.5757 -270.3774
614.1414 363.6364 -272.2855
614.1414 369.6970 -270.8653
614.1414 375.7576 -268.8615
614.1414 381.8182 -269.0961
614.1414 387.8788 -272.0406
614.1414 393.9394 -270.1336
614.1414 400.0000 -272.5221
614.1414 406.0606 -277.6782
614.1414 412.1212 -280.5779
614.1414 418.1818 -282.5189
614.1414 424.2424 -280.8160
614.1414 430.3030 -285.9089
614.1414 436.3636 -285.2322
614.1414 442.4242 -277.0674
614.1414 448.4848 -278.1033
614.1414 454.5454 -269.1777
614.1414 460.6060 -279.2543
614.1414 466.6667 -272.4221
614.1414 472.7273 -266.1644
614.1414 478.7879 -266.7659
614.1414 484.8485 -266.8944
614.1414 490.9091 -265.8741
614.1414 496.9697 -259.5839
614.1414 503.0303 -252.5135
614.1414 509.0909 -249.6544
614.1414 515.1515 -249.5601
614.1414 521.2121 -250.1801
614.1414 527.2727 -250.5870
614.1414 533.3333 -246.8586
614.1414 539.3939 -245.1968
614.1414 545.4545 -244.9092
614.1414 551.5151 -245.7431
614.1414 557.5757 -246.4477
614.1414 563.6364 -244.0708
614.1414 569.6970 -244.9911
614.1414 575.7576 -239.5228
614.1414 581.8182 -240.0611
614.1414 587.8788 -238.3659
614.1414 593.9394 -237.1952
614.1414 600.0000 -239.5380
622.2222 0.0000 -255.5382
622.2222 6.0606 -256.1955
622.2222 12.1212 -256.0237
622.2222 18.1818 -251.4244
622.2222 24.2424 -252.1978
622.2222 30.3030 -251.7189
622.2222 36.3636 -254.0679
622.2222 42.4242 -252.6262
622.2222 48.4848 -252.2934
622.2222 54.5455 -252.0741
622.2222 60.6061 -252.3746
622.2222 66.6667 -251.3608
622.2222 72.7273 -253.4038
622.2222 78.7879 -252.6604
622.2222 84.8485 -250.6821
622.2222 90.9091 -250.6941
622.2222 96.9697 -249.6743
622.2222 103.0303 -251.0155
622.2222 109.0909 -252.1966
622.2222 115.1515 -255.7418
622.2222 121.2121 -257.0382
622.2222 127.2727 -253.7467
622.2222 133.3333 -257.9659
622.2222 139.3939 -257.5685
622.2222 145.4545 -257.1275
622.2222 151.5152 -257.0070
622.2222 157.5758 -256.9365
622.2222 163.6364 -256.0133
622.2222 169.6970 -257.7337
622.2222 175.7576 -257.8449
622.2222 181.8182 -259.6904
622.2222 187.8788 -259.6688
622.2222 193.9394 -257.6082
622.2222 200.0000 -257.6566
622.2222 206.0606 -258.7932
622.2222 212.1212 -260.8448
622.2222 218.1818 -260.8009
622.2222 224.2424 -265.4443
622.2222 230.3030 -259.0586
622.2222 236.3636 -259.4904
622.2222 242.4242 -260.5599
622.2222 248.4848 -261.8482
622.2222 254.5455 -264.5766
622.2222 260.6060 -265.8262
622.2222 266.6667 -266.2816
622.2222 272.7273 -265.5325
622.2222 278.7879 -269.9106
622.2222 284.8485 -266.5720
622.2222 290.9091 -267.1281
622.2222 296.9697 -268.4106
622.2222 303.0303 -268.0392
622.2222 309.0909 -266.9147
622.2222 315.1515 -267.8492
622.2222 321.2121 -268.7763
622.2222 327.2727 -268.7733
622.2222 333.3333 -268.6565
622.2222 339.3939 -271.2469
622.2222 345.4545 -272.6896
622.2222 351.5151 -268.8288
622.2222 357.5757 -269.0744
622.2222 363.6364 -271.3143
622.2222 369.6970 -270.0647
622.2222 375.7576 -270.5286
622.2222 381.8182 -268.5367
622.2222 387.8788 -271.0592
622.2222 393.9394 -272.2764
622.2222 400.0000 -279.1911
622.2222 406.0606 -279.2050
622.2222 412.1212 -282.8796
622.2222 418.1818 -281.9116
622.2222 424.2424 -289.8590
622.2222 430.3030 -283.8854
622.2222 436.3636 -276.3745
622.2222 442.4242 -280.4218
622.2222 448.4848 -283.8936
622.2222 454.5454 -275.1540
622.2222 460.6060 -274.9789
622.2222 466.6667 -273.9562
622.2222 472.7273 -269.9187
622.2222 478.7879 -267.3467
622.2222 484.8485 -269.3965
622.2222 490.9091 -261.6011
622.2222 496.9697 -255.3273
622.2222 503.0303 -251.7815
622.2222 509.0909 -256.0408
622.2222 515.1515 -253.9400
622.2222 521.2121 -255.7986
622.2222 527.2727 -247.9766
622.2222 533.3333 -251.2110
622.2222 539.3939 -251.0144
622.2222 545.4545 -248.2212
622.2222 551.5151 -249.0835
622.2222 557.5757 -246.8319
622.2222 563.6364 -248.4341
622.2222 569.6970 -248.4089
622.2222 575.7576 -247.3255
622.2222 581.8182 -245.0093
622.2222 587.8788 -242.9307
622.2222 593.9394 -243.8754
622.2222 600.0000 -245.6025
630.3030 0.0000 -258.6104
630.3030 6.0606 -257.7964
630.3030 12.1212 -255.8674
630.3030 18.1818 -256.4221
630.3030 24.2424 -254.9461
630.3030 30.3030 -256.8109
630.3030 36.3636 -256.2510
630.3030 42.4242 -255.7114
630.3030 48.4848 -254.2172
630.3030 54.5455 -254.0378
630.3030 60.6061 -253.7324
630.3030 66.6667 -255.6062
630.3030 72.7273 -255.2921
630.3030 78.7879 -251.4059
630.3030 84.8485 -253.9651
630.3030 90.9091 -255.3356
630.3030 96.9697 -253.4878
630.3030 103.0303 -258.1563
630.3030 109.0909 -254.5012
630.3030 115.1515 -257.8804
630.3030 121.2121 -255.4220
630.3030 127.2727 -257.1132
630.3030 133.3333 -259.3984
630.3030 139.3939 -259.9053
630.3030 145.4545 -260.5445
630.3030 151.5152 -261.6618
630.3030 157.5758 -259.0795
630.3030 163.6364 -260.8189
630.3030 169.6970 -258.0489
630.3030 175.7576 -262.2494
630.3030 181.8182 -262.5536
630.3030 187.8788 -263.3323
630.3030 193.9394 -263.9766
630.3030 200.0000 -263.7977
630.3030 206.0606 -262.7156
630.3030 212.1212 -265.3075
630.3030 218.1818 -260.5311
630.3030 224.2424 -261.0298
630.3030 230.3030 -261.5342
630.3030 236.3636 -262.0273
630.3030 242.4242 -262.5602
630.3030 248.4848 -267.0404
630.3030 254.5455 -268.4809
630.3030 260.6060 -265.5830
630.3030 266.6667 -268.1887
630.3030 272.7273 -270.6151
630.3030 278.7879 -268.1636
630.3030 284.8485 -267.5887
630.3030 290.9091 -267.5218
630.3030 296.9697 -268.6599
630.3030 303.0303 -270.9888
630.3030 309.0909 -270.4730
630.3030 315.1515 -271.3506
630.3030 321.2121 -270.3729
630.3030 327.2727 -272.1472
630.3030 333.3333 -274.3839
630.3030 339.3939 -270.5355
630.3030 345.4545 -271.9850
630.3030 351.5151 -269.9579
630.3030 357.5757 -267.3454
630.3030 363.6364 -270.4532
630.3030 369.6970 -267.3936
630.3030 375.7576 -272.7143
630.3030 381.8182 -274.7530
630.3030 387.8788 -273.8495
630.3030 393.9394 -273.3704
630.3030 400.0000 -278.8632
630.3030 406.0606 -287.4161
630.3030 412.1212 -279.8354
630.3030 418.1818 -286.7424
630.3030 424.2424 -283.1448
630.3030 430.3030 -279.0826
630.3030 436.3636 -278.1071
630.3030 442.4242 -275.7541
630.3030 448.4848 -276.1755
630.3030 454.5454 -272.5495
630.3030 460.6060 -271.1651
630.3030 466.6667 -276.4154
630.3030 472.7273 -271.6747
630.3030 478.7879 -268.1814
630.3030 484.8485 -262.3472
630.3030 490.9091 -258.1629
630.3030 496.9697 -252.3208
630.3030 503.0303 -255.9602
630.3030 509.0909 -256.6820
630.3030 515.1515 -251.8791
630.3030 521.2121 -252.6272
630.3030 527.2727 -251.0000
630.3030 533.3333 -248.6474
630.3030 539.3939 -252.6170
630.3030 545.4545 -246.5842
630.3030 551.5151 -251.6253
630.3030 557.5757 -249.9648
630.3030 563.6364 -246.4068
630.3030 569.6970 -247.1999
630.3030 575.7576 -249.0448
630.3030 581.8182 -244.6472
630.3030 587.8788 -243.7368
630.3030 593.9394 -245.4051
630.3030 600.0000 -248.3890
638.3838 0.0000 -261.1451
638.3838 6.0606 -259.1895
638.3838 12.1212 -259.7120
638.3838 18.1818 -260.2614
638.3838 24.2424 -257.9473
638.3838 30.3030 -257.3261
638.3838 36.3636 -255.7987
638.3838 42.4242 -258.9529
638.3838 48.4848 -258.4711
638.3838 54.5455 -259.7876
638.3838 60.6061 -255.4591
638.3838 66.6667 -258.9638
638.3838 72.7273 -258.4190
638.3838 78.7879 -257.0588
638.3838 84.8485 -257.1542
638.3838 90.9091 -256.2072
638.3838 96.9697 -257.4939
638.3838 103.0303 -258.1147
638.3838 109.0909 -259.3858
638.3838 115.1515 -260.8513
638.3838 121.2121 -259.7411
638.3838 127.2727 -261.3775
638.3838 133.3333 -263.3725
638.3838 139.3939 -261.4569
638.3838 145.4545 -258.8630
638.3838 151.5152 -261.6190
638.3838 157.5758 -263.3264
638.3838 163.6364 -262.8923
638.3838 169.6970 -260.1881
638.3838 175.7576 -263.1233
638.3838 181.8182 -261.0491
638.3838 187.8788 -263.5113
638.3838 193.9394 -265.0945
638.3838 200.0000 -266.0326
638.3838 206.0606 -265.6443
638.3838 212.1212 -266.1539
638.3838 218.1818 -265.1332
638.3838 224.2424 -263.8996
638.3838 230.3030 -262.4313
638.3838 236.3636 -265.5926
638.3838 242.4242 -267.4112
638.3838 248.4848 -269.1004
638.3838 254.5455 -268.4781
638.3838 260.6060 -265.9792
638.3838 266.6667 -269.0364
638.3838 272.7273 -265.3060
638.3838 278.7879 -268.8702
638.3838 284.8485 -270.4410
638.3838 290.9091 -271.8336
638.3838 296.9697 -271.0388
638.3838 303.0303 -267.7997
638.3838 309.0909 -270.3219
638.3838 315.1515 -271.7310
638.3838 321.2121 -271.7974
638.3838 327.2727 -272.3183
638.3838 333.3333 -271.4299
638.3838 339.3939 -269.8318
638.3838 345.4545 -270.7966
638.3838 351.5151 -269.5091
638.3838 357.5757 -272.8748
638.3838 363.6364 -270.5361
638.3838 369.6970 -269.6520
638.3838 375.7576 -271.9418
638.3838 381.8182 -274.8972
638.3838 387.8788 -275.9491
638.3838 393.9394 -279.4314
638.3838 400.0000 -284.8383
638.3838 406.0606 -280.0526
638.3838 412.1212 -278.0805
638.3838 418.1818 -284.6162
638.3838 424.2424 -278.9655
638.3838 430.3030 -280.1869
638.3838 436.3636 -284.3292
638.3838 442.4242 -283.4543
638.3838 448.4848 -282.4754
638.3838 454.5454 -272.8851
638.3838 460.6060 -274.7001
638.3838 466.6667 -270.4234
638.3838 472.7273 -266.7740
638.3838 478.7879 -259.8799
638.3838 484.8485 -258.3169
638.3838 490.9091 -259.1216
638.3838 496.9697 -258.9052
638.3838 503.0303 -255.3108
638.3838 509.0909 -253.7509
638.3838 515.1515 -254.9774
638.3838 521.2121 -255.1265
638.3838 527.2727 -252.3580
638.3838 533.3333 -254.9832
638.3838 539.3939 -255.8649
638.3838 545.4545 -251.5545
638.3838 551.5151 -251.6136
638.3838 557.5757 -247.1993
638.3838 563.6364 -247.7264
638.3838 569.6970 -248.5887
638.3838 575.7576 -248.1183
638.3838 581.8182 -250.2472
638.3838 587.8788 -249.6611
638.3838 593.9394 -243.1471
638.3838 600.0000 -243.2660
646.4646 0.0000 -262.7307
646.4646 6.0606 -263.2161
646.4646 12.1212 -261.7174
646.4646 18.1818 -259.7455
646.4646 24.2424 -259.5785
646.4646 30.3030 -260.0132
646.4646 36.3636 -260.8618
646.4646 42.4242 -260.0893
646.4646 48.4848 -260.0246
646.4646 54.5455 -259.1250
646.4646 60.6061 -256.9584
646.4646 66.6667 -257.3230
646.4646 72.7273 -259.3649
646.4646 78.7879 -257.9588
646.4646 84.8485 -259.0570
646.4646 90.9091 -258.1825
646.4646 96.9697 -255.0224
646.4646 103.0303 -257.2975
646.4646 109.0909 -261.5730
646.4646 115.1515 -259.9686
646.4646 121.2121 -262.3654
646.4646 127.2727 -262.7328
646.4646 133.3333 -263.0716
646.4646 139.3939 -264.6764
646.4646 145.4545 -263.2791
646.4646 151.5152 -261.8911
646.4646 157.5758 -266.2917
646.4646 163.6364 -266.2125
646.4646 169.6970 -265.4105
646.4646 175.7576 -265.6029
646.4646 181.8182 -265.6244
646.4646 187.8788 -267.0612
646.4646 193.9394 -266.7980
646.4646 200.0000 -265.7855
646.4646 206.0606 -263.0963
646.4646 212.1212 -268.0765
646.4646 218.1818 -263.7556
646.4646 224.2424 -264.8652
646.4646 230.3030 -264.2208
646.4646 236.3636 -265.8430
646.4646 242.4242 -265.7576
646.4646 248.4848 -268.7515
646.4646 254.5455 -269.7642
646.4646 260.6060 -269.8327
646.4646 266.6667 -269.1341
646.4646 272.7273 -268.9488
646.4646 278.7879 -269.9927
646.4646 284.8485 -272.2533
646.4646 290.9091 -270.6763
646.4646 296.9697 -267.3604
646.4646 303.0303 -271.5839
646.4646 309.0909 -274.6072
646.4646 315.1515 -272.9536
646.4646 321.2121 -272.6469
646.4646 327.2727 -269.0239
646.4646 333.3333 -268.9308
646.4646 339.3939 -268.7340
646.4646 345.4545 -273.8875
646.4646 351.5151 -272.9655
646.4646 357.5757 -274.3916
646.4646 363.6364 -273.6426
646.4646 369.6970 -273.7685
646.4646 375.7576 -269.1036
646.4646 381.8182 -277.6883
646.4646 387.8788 -278.1659
646.4646 393.9394 -283.7259
646.4646 400.0000 -283.7048
646.4646 406.0606 -281.8101
646.4646 412.1212 -286.7773
646.4646 418.1818 -287.2842
646.4646 424.2424 -281.3638
646.4646 430.3030 -275.9938
646.4646 436.3636 -278.7964
646.4646 442.4242 -278.3538
646.4646 448.4848 -280.7218
646.4646 454.5454 -275.4615
646.4646 460.6060 -272.2852
646.4646 466.6667 -265.4076
646.4646 472.7273 -261.1277
646.4646 478.7879 -256.8071
646.4646 484.8485 -260.4171
646.4646 490.9091 -255.4962
646.4646 496.9697 -256.0279
646.4646 503.0303 -259.7482
646.4646 509.0909 -258.4171
646.4646 515.1515 -254.2152
646.4646 521.2121 -253.9490
646.4646 527.2727 -255.6887
646.4646 533.3333 -256.6686
646.4646 539.3939 -260.4981
646.4646 545.4545 -254.4867
646.4646 551.5151 -253.2052
646.4646 557.5757 -251.8544
646.4646 563.6364 -247.9281
646.4646 569.6970 -248.5129
646.4646 575.7576 -253.2245
646.4646 581.8182 -248.8668
646.4646 587.8788 -250.5391
646.4646 593.9394 -250.1450
646.4646 600.0000 -240.7554
654.5454 0.0000 -265.9733
654.5454 6.0606 -263.6819
654.5454 12.1212 -263.8110
654.5454 18.1818 -262.5656
654.5454 24.2424 -263.0931
654.5454 30.3030 -262.5401
654.5454 36.3636 -260.8206
654.5454 42.4242 -259.9933
654.5454 48.4848 -261.0856
654.5454 54.5455 -261.3737
654.5454 60.6061 -258.1686
654.5454 66.6667 -260.3938
654.5454 72.7273 -259.6298
654.5454 78.7879 -263.9158
654.5454 84.8485 -259.2227
654.5454 90.9091 -259.1713
654.5454 96.9697 -259.4630
654.5454 103.0303 -260.6263
654.5454 109.0909 -260.4967
654.5454 115.1515 -261.6446
654.5454 121.2121 -263.4051
654.5454 127.2727 -260.6608
654.5454 133.3333 -265.8477
654.5454 139.3939 -264.3646
654.5454 145.4545 -264.2794
654.5454 151.5152 -266.6579
654.5454 157.5758 -266.6546
654.5454 163.6364 -268.6154
654.5454 169.6970 -267.1197
654.5454 175.7576 -267.3637
654.5454 181.8182 -266.7536
654.5454 187.8788 -268.0464
654.5454 193.9394 -268.3227
654.5454 200.0000 -265.6668
654.5454 206.0606 -266.1143
654.5454 212.1212 -268.1896
654.5454 218.1818 -267.7690
654.5454 224.2424 -270.6497
654.5454 230.3030 -266.6344
654.5454 236.3636 -271.5305
654.5454 242.4242 -270.8716
654.5454 248.4848 -270.3162
654.5454 254.5455 -269.2595
654.5454 260.6060 -271.9028
654.5454 266.6667 -272.0455
654.5454 272.7273 -270.5722
654.5454 278.7879 -274.1818
654.5454 284.8485 -273.7215
654.5454 290.9091 -271.1665
654.5454 296.9697 -274.3927
654.5454 303.0303 -275.0935
654.5454 309.0909 -276.1998
654.5454 315.1515 -275.3504
654.5454 321.2121 -276.8651
654.5454 327.2727 -270.0160
654.5454 333.3333 -271.9945
654.5454 339.3939 -274.7648
654.5454 345.4545 -275.7271
654.5454 351.5151 -278.0054
654.5454 357.5757 -279.5075
654.5454 363.6364 -279.4661
654.5454 369.6970 -276.6257
654.5454 375.7576 -278.6959
654.5454 381.8182 -279.1683
654.5454 387.8788 -281.3860
654.5454 393.9394 -288.9419
654.5454 400.0000 -284.2798
654.5454 406.0606 -281.3711
654.5454 412.1212 -286.1586
654.5454 418.1818 -288.8238
654.5454 424.2424 -280.4180
654.5454 430.3030 -279.9841
654.5454 436.3636 -273.5596
654.5454 442.4242 -273.2534
654.5454 448.4848 -277.4089
654.5454 454.5454 -269.6429
654.5454 460.6060 -270.8015
654.5454 466.6667 -264.0784
654.5454 472.7273 -263.5321
654.5454 478.7879 -262.4294
654.5454 484.8485 -259.2511
654.5454 490.9091 -262.8087
654.5454 496.9697 -257.4616
654.5454 503.0303 -256.5821
654.5454 509.0909 -258.7296
654.5454 515.1515 -260.9779
654.5454 521.2121 -256.6115
654.5454 527.2727 -255.4725
654.5454 533.3333 -262.3607
654.5454 539.3939 -259.4480
654.5454 545.4545 -256.1512
654.5454 551.5151 -255.7621
654.5454 557.5757 -256.4903
654.5454 563.6364 -253.5999
654.5454 569.6970 -254.1283
654.5454 575.7576 -247.6619
654.5454 581.8182 -250.4561
654.5454 587.8788 -252.6942
654.5454 593.9394 -254.2363
654.5454 600.0000 -255.9146
662.6262 0.0000 -264.3829
662.6262 6.0606 -265.7107
662.6262 12.1212 -266.6019
662.6262 18.1818 -267.1331
662.6262 24.2424 -267.3593
662.6262 30.3030 -263.9991
662.6262 36.3636 -262.7930
662.6262 42.4242 -262.6786
662.6262 48.4848 -263.8999
662.6262 54.5455 -262.8937
662.6262 60.6061 -261.9422
662.6262 66.6667 -261.0328
662.6262 72.7273 -262.5199
662.6262 78.7879 -262.7540
662.6262 84.8485 -260.7890
662.6262 90.9091 -262.2817
662.6262 96.9697 -263.1821
662.6262 103.0303 -264.2355
662.6262 109.0909 -263.0535
662.6262 115.1515 -263.6236
662.6262 121.2121 -265.4943
662.6262 127.2727 -264.8712
662.6262 133.3333 -263.9179
662.6262 139.3939 -265.1711
662.6262 145.4545 -264.8328
662.6262 151.5152 -268.6651
662.6262 157.5758 -269.9299
662.6262 163.6364 -269.8888
662.6262 169.6970 -269.9667
662.6262 175.7576 -268.2915
662.6262 181.8182 -269.7959
662.6262 187.8788 -270.4927
662.6262 193.9394 -269.3310
662.6262 200.0000 -268.4948
662.6262 206.0606 -270.4988
662.6262 212.1212 -268.6035
662.6262 218.1818 -266.9176
662.6262 224.2424 -269.3944
662.6262 230.3030 -269.7589
662.6262 236.3636 -269.6527
662.6262 242.4242 -270.3196
662.6262 248.4848 -269.9834
662.6262 254.5455 -269.8892
662.6262 260.6060 -270.3449
662.6262 266.6667 -271.6926
662.6262 272.7273 -271.0227
662.6262 278.7879 -274.5256
662.6262 284.8485 -274.0142
662.6262 290.9091 -275.8031
662.6262 296.9697 -274.1721
662.6262 303.0303 -273.4100
662.6262 309.0909 -271.0971
662.6262 315.1515 -270.0085
662.6262 321.2121 -272.6253
662.6262 327.2727 -277.6038
662.6262 333.3333 -276.4324
662.6262 339.3939 -280.7769
662.6262 345.4545 -280.4477
662.6262 351.5151 -281.2581
662.6262 357.5757 -282.0002
662.6262 363.6364 -281.7022
662.6262 369.6970 -275.3485
662.6262 375.7576 -278.7984
662.6262 381.8182 -279.0683
662.6262 387.8788 -283.1853
662.6262 393.9394 -288.0583
662.6262 400.0000 -283.8275
662.6262 406.0606 -285.1195
662.6262 412.1212 -283.3536
662.6262 418.1818 -289.7356
662.6262 424.2424 -281.9601
662.6262 430.3030 -281.7667
662.6262 436.3636 -280.9356
662.6262 442.4242 -272.2261
662.6262 448.4848 -270.8431
662.6262 454.5454 -265.8579
662.6262 460.6060 -266.2081
662.6262 466.6667 -269.1526
662.6262 472.7273 -263.3916
662.6262 478.7879 -259.0649
662.6262 484.8485 -262.0873
662.6262 490.9091 -261.4317
662.6262 496.9697 -258.2950
662.6262 503.0303 -258.3043
662.6262 509.0909 -257.1555
662.6262 515.1515 -258.5920
662.6262 521.2121 -259.0877
662.6262 527.2727 -262.9457
662.6262 533.3333 -263.1529
662.6262 539.3939 -259.1116
662.6262 545.4545 -259.1884
662.6262 551.5151 -259.2783
662.6262 557.5757 -259.9856
662.6262 563.6364 -255.5152
662.6262 569.6970 -256.5954
662.6262 575.7576 -255.2885
662.6262 581.8182 -254.4531
662.6262 587.8788 -255.3817
662.6262 593.9394 -256.0736
662.6262 600.0000 -258.5250
670.7070 0.0000 -266.7839
670.7070 6.0606 -267.2355
670.7070 12.1212 -267.5087
670.7070 18.1818 -268.5223
670.7070 24.2424 -267.6088
670.7070 30.3030 -267.0126
670.7070 36.3636 -267.2907
670.7070 42.4242 -265.0019
670.7070 48.4848 -265.5496
670.7070 54.5455 -263.9315
670.7070 60.6061 -265.4402
670.7070 66.6667 -263.8930
670.7070 72.7273 -264.9265
670.7070 78.7879 -265.4656
670.7070 84.8485 -260.7755
670.7070 90.9091 -264.7125
670.7070 96.9697 -264.8863
670.7070 103.0303 -263.7085
670.7070 109.0909 -268.3412
670.7070 115.1515 -265.9547
670.7070 121.2121 -268.3803
670.7070 127.2727 -268.6685
670.7070 133.3333 -266.6422
670.7070 139.3939 -266.6002
670.7070 145.4545 -267.5823
670.7070 151.5152 -268.7967
670.7070 157.5758 -271.0064
670.7070 163.6364 -270.2373
670.7070 169.6970 -271.4961
670.7070 175.7576 -270.1907
670.7070 181.8182 -272.3372
670.7070 187.8788 -272.4100
670.7070 193.9394 -271.9820
670.7070 200.0000 -271.8554
670.7070 206.0606 -270.2260
670.7070 212.1212 -270.0893
670.7070 218.1818 -269.9811
670.7070 224.2424 -269.9433
670.7070 230.3030 -270.0558
670.7070 236.3636 -271.6219
670.7070 242.4242 -273.4848
670.7070 248.4848 -269.9210
670.7070 254.5455 -273.7878
670.7070 260.6060 -271.9495
670.7070 266.6667 -277.1588
670.7070 272.7273 -276.2721
670.7070 278.7879 -275.2734
670.7070 284.8485 -276.6629
670.7070 290.9091 -273.3889
670.7070 296.9697 -273.0774
670.7070 303.0303 -268.2495
670.7070 309.0909 -268.9722
670.7070 315.1515 -271.9431
670.7070 321.2121 -276.1518
670.7070 327.2727 -281.1710
670.7070 333.3333 -280.3445
670.7070 339.3939 -284.6424
670.7070 345.4545 -283.5410
670.7070 351.5151 -281.4016
670.7070 357.5757 -281.3108
670.7070 363.6364 -276.9814
670.7070 369.6970 -272.8966
670.7070 375.7576 -279.3552
670.7070 381.8182 -280.6741
670.7070 387.8788 -286.3629
670.7070 393.9394 -285.6758
670.7070 400.0000 -281.5508
670.7070 406.0606 -284.2736
670.7070 412.1212 -281.2670
670.7070 418.1818 -293.1479
670.7070 424.2424 -285.1238
670.7070 430.3030 -275.8357
670.7070 436.3636 -279.9384
670.7070 442.4242 -271.6137
670.7070 448.4848 -267.1200
670.7070 454.5454 -267.5550
670.7070 460.6060 -268.2036
670.7070 466.6667 -263.5135
670.7070 472.7273 -264.4778
670.7070 478.7879 -262.8216
670.7070 484.8485 -263.7318
670.7070 490.9091 -264.1172
670.7070 496.9697 -264.8155
670.7070 503.0303 -258.0661
670.7070 509.0909 -262.3986
670.7070 515.1515 -258.9934
670.7070 521.2121 -257.7003
670.7070 527.2727 -261.5451
670.7070 533.3333 -261.1381
670.7070 539.3939 -263.1609
670.7070 545.4545 -263.5388
670.7070 551.5151 -259.1444
670.7070 557.5757 -260.2480
670.7070 563.6364 -260.7977
670.7070 569.6970 -258.6547
670.7070 575.7576 -261.1855
670.7070 581.8182 -258.6154
670.7070 587.8788 -257.5599
670.7070 593.9394 -261.8728
670.7070 600.0000 -264.2325
678.7878 0.0000 -270.1417
678.7878 6.0606 -267.6748
678.7878 12.1212 -269.2742
678.7878 18.1818 -269.6021
678.7878 24.2424 -271.6047
678.7878 30.3030 -272.3098
678.7878 36.3636 -271.8932
678.7878 42.4242 -270.4104
678.7878 48.4848 -270.1415
678.7878 54.5455 -267.0281
678.7878 60.6061 -270.8275
678.7878 66.6667 -270.7858
678.7878 72.7273 -266.1235
678.7878 78.7879 -267.3946
678.7878 84.8485 -269.1052
678.7878 90.9091 -267.2835
678.7878 96.9697 -269.2099
678.7878 103.0303 -266.7693
678.7878 109.0909 -266.6670
678.7878 115.1515 -267.4937
678.7878 121.2121 -269.0897
678.7878 127.2727 -271.3369
678.7878 133.3333 -270.5704
678.7878 139.3939 -269.5561
678.7878 145.4545 -268.8397
678.7878 151.5152 -270.6313
678.7878 157.5758 -272.8287
678.7878 163.6364 -272.4719
678.7878 169.6970 -274.1107
678.7878 175.7576 -273.1907
678.7878 181.8182 -275.3055
678.7878 187.8788 -276.3875
678.7878 193.9394 -274.7341
678.7878 200.0000 -274.2403
678.7878 206.0606 -274.9615
678.7878 212.1212 -276.6196
678.7878 218.1818 -273.1176
678.7878 224.2424 -274.1259
678.7878 230.3030 -275.4482
678.7878 236.3636 -273.3654
678.7878 242.4242 -274.0558
678.7878 248.4848 -273.8802
678.7878 254.5455 -277.6854
678.7878 260.6060 -278.7474
678.7878 266.6667 -279.1537
678.7878 272.7273 -276.6721
678.7878 278.7879 -278.0850
678.7878 284.8485 -279.1025
678.7878 290.9091 -276.6308
678.7878 296.9697 -278.8731
678.7878 303.0303 -277.8342
678.7878 309.0909 -277.8903
678.7878 315.1515 -277.6775
678.7878 321.2121 -279.9414
678.7878 327.2727 -277.9501
678.7878 333.3333 -283.7983
678.7878 339.3939 -282.7775
678.7878 345.4545 -281.6290
678.7878 351.5151 -282.8543
678.7878 357.5757 -280.9720
678.7878 363.6364 -276.9744
678.7878 369.6970 -276.4568
678.7878 375.7576 -280.8697
678.7878 381.8182 -284.8082
678.7878 387.8788 -288.9032
678.7878 393.9394 -283.4487
678.7878 400.0000 -287.7049
678.7878 406.0606 -288.1640
678.7878 412.1212 -285.7846
678.7878 418.1818 -293.9828
678.7878 424.2424 -282.8365
678.7878 430.3030 -281.9866
678.7878 436.3636 -278.4265
678.7878 442.4242 -271.7480
678.7878 448.4848 -271.0000
678.7878 454.5454 -270.1242
678.7878 460.6060 -272.6091
678.7878 466.6667 -269.8427
678.7878 472.7273 -268.2546
678.7878 478.7879 -264.7000
678.7878 484.8485 -265.7563
678.7878 490.9091 -266.3003
678.7878 496.9697 -265.9644
678.7878 503.0303 -264.9125
678.7878 509.0909 -262.4968
678.7878 515.1515 -262.8250
678.7878 521.2121 -262.4178
678.7878 527.2727 -262.8432
678.7878 533.3333 -262.0140
678.7878 539.3939 -263.4970
678.7878 545.4545 -263.3172
678.7878 551.5151 -266.0150
678.7878 557.5757 -264.5162
678.7878 563.6364 -265.0602
678.7878 569.6970 -261.3909
678.7878 575.7576 -260.4211
678.7878 581.8182 -261.2850
678.7878 587.8788 -263.5574
678.7878 593.9394 -262.3771
678.7878 600.0000 -261.6529
686.8687 0.0000 -270.7461
686.8687 6.0606 -271.8267
686.8687 12.1212 -266.1084
686.8687 18.1818 -271.1459
686.8687 24.2424 -273.5340
686.8687 30.3030 -271.7632
686.8687 36.3636 -272.4148
686.8687 42.4242 -273.3876
686.8687 48.4848 -270.6497
686.8687 54.5455 -268.4709
686.8687 60.6061 -272.4727
686.8687 66.6667 -270.2327
686.8687 72.7273 -274.6020
686.8687 78.7879 -271.7809
686.8687 84.8485 -271.2700
686.8687 90.9091 -271.2138
686.8687 96.9697 -268.4325
686.8687 103.0303 -268.2454
686.8687 109.0909 -269.9613
686.8687 115.1515 -269.8169
686.8687 121.2121 -272.9333
686.8687 127.2727 -271.9239
686.8687 133.3333 -273.4926
686.8687 139.3939 -273.7231
686.8687 145.4545 -274.3316
686.8687 151.5152 -273.7076
686.8687 157.5758 -273.5260
686.8687 163.6364 -273.5842
686.8687 169.6970 -276.8177
686.8687 175.7576 -277.0670
686.8687 181.8182 -276.1333
686.8687 187.8788 -277.4919
686.8687 193.9394 -277.1425
686.8687 200.0000 -276.7042
686.8687 206.0606 -275.9667
686.8687 212.1212 -282.3503
686.8687 218.1818 -274.4190
686.8687 224.2424 -275.3486
686.8687 230.3030 -276.1234
686.8687 236.3636 -276.7592
686.8687 242.4242 -276.7671
686.8687 248.4848 -276.2470
686.8687 254.5455 -279.3487
686.8687 260.6060 -280.5556
686.8687 266.6667 -276.6543
686.8687 272.7273 -278.4479
686.8687 278.7879 -284.3404
686.8687 284.8485 -282.2157
686.8687 290.9091 -284.8941
686.8687 296.9697 -284.0814
686.8687 303.0303 -284.5134
686.8687 309.0909 -282.3741
686.8687 315.1515 -281.1516
686.8687 321.2121 -282.5579
686.8687 327.2727 -277.1871
686.8687 333.3333 -277.3791
686.8687 339.3939 -276.7074
686.8687 345.4545 -278.3639
686.8687 351.5151 -280.8118
686.8687 357.5757 -276.9262
686.8687 363.6364 -280.5535
686.8687 369.6970 -281.6522
686.8687 375.7576 -281.7542
686.8687 381.8182 -288.1841
686.8687 387.8788 -287.0437
686.8687 393.9394 -283.7346
686.8687 400.0000 -288.4498
686.8687 406.0606 -286.3530
686.8687 412.1212 -290.2157
686.8687 418.1818 -297.5054
686.8687 424.2424 -287.5696
686.8687 430.3030 -283.3266
686.8687 436.3636 -281.2435
686.8687 442.4242 -277.2855
686.8687 448.4848 -279.0834
686.8687 454.5454 -276.5650
686.8687 460.6060 -270.9510
686.8687 466.6667 -272.7685
686.8687 472.7273 -267.4302
686.8687 478.7879 -265.3528
686.8687 484.8485 -265.4659
686.8687 490.9091 -266.8730
686.8687 496.9697 -269.4292
686.8687 503.0303 -265.9435
686.8687 509.0909 -266.2762
686.8687 515.1515 -267.0504
686.8687 521.2121 -263.7748
686.8687 527.2727 -263.9846
686.8687 533.3333 -264.5085
686.8687 539.3939 -263.8020
686.8687 545.4545 -266.5574
686.8687 551.5151 -266.7805
686.8687 557.5757 -269.7363
686.8687 563.6364 -268.4101
686.8687 569.6970 -263.0121
686.8687 575.7576 -267.2850
686.8687 581.8182 -265.7424
686.8687 587.8788 -262.0252
686.8687 593.9394 -265.6608
686.8687 600.0000 -265.7588
694.9495 0.0000 -274.9872
694.9495 6.0606 -274.1416
694.9495 12.1212 -271.2353
694.9495 18.1818 -272.8541
694.9495 24.2424 -271.9487
694.9495 30.3030 -275.6071
694.9495 36.3636 -274.8497
694.9495 42.4242 -273.8484
694.9495 48.4848 -273.6512
694.9495 54.5455 -273.4063
694.9495 60.6061 -274.1650
694.9495 66.6667 -272.9190
694.9495 72.7273 -272.8345
694.9495 78.7879 -272.7590
694.9495 84.8485 -273.1662
694.9495 90.9091 -271.9780
694.9495 96.9697 -274.0486
694.9495 103.0303 -273.5428
694.9495 109.0909 -274.2199
694.9495 115.1515 -271.9380
694.9495 121.2121 -276.9897
694.9495 127.2727 -277.3982
694.9495 133.3333 -276.4186
694.9495 139.3939 -276.1092
694.9495 145.4545 -281.5312
694.9495 151.5152 -280.3323
694.9495 157.5758 -276.9991
694.9495 163.6364 -278.6292
694.9495 169.6970 -277.1966
694.9495 175.7576 -276.2799
694.9495 181.8182 -277.2130
694.9495 187.8788 -277.4859
694.9495 193.9394 -277.3351
694.9495 200.0000 -276.7690
694.9495 206.0606 -277.1537
694.9495 212.1212 -280.4706
694.9495 218.1818 -278.8367
694.9495 224.2424 -277.0836
694.9495 230.3030 -277.0405
694.9495 236.3636 -278.0358
694.9495 242.4242 -280.9442
694.9495 248.4848 -276.5841
694.9495 254.5455 -282.7492
694.9495 260.6060 -285.1304
694.9495 266.6667 -285.7341
694.9495 272.7273 -288.5554
694.9495 278.7879 -287.8138
694.9495 284.8485 -284.4293
694.9495 290.9091 -283.7102
694.9495 296.9697 -284.0742
694.9495 303.0303 -282.3127
694.9495 309.0909 -281.9812
694.9495 315.1515 -280.9981
694.9495 321.2121 -278.0999
694.9495 327.2727 -279.3416
694.9495 333.3333 -279.0050
694.9495 339.3939 -277.4977
694.9495 345.4545 -278.4492
694.9495 351.5151 -280.9846
694.9495 357.5757 -283.9732
694.9495 363.6364 -281.5039
694.9495 369.6970 -281.9023
694.9495 375.7576 -281.3990
694.9495 381.8182 -289.9495
694.9495 387.8788 -285.3572
694.9495 393.9394 -289.3292
694.9495 400.0000 -289.5003
694.9495 406.0606 -289.4305
694.9495 412.1212 -289.4510
694.9495 418.1818 -294.9570
694.9495 424.2424 -296.0220
694.9495 430.3030 -288.3816
694.9495 436.3636 -288.9083
694.9495 442.4242 -287.3058
694.9495 448.4848 -284.1577
694.9495 454.5454 -277.1728
694.9495 460.6060 -274.3463
694.9495 466.6667 -270.2860
694.9495 472.7273 -273.8555
694.9495 478.7879 -274.3042
694.9495 484.8485 -270.6572
694.9495 490.9091 -272.7747
694.9495 496.9697 -273.2986
694.9495 503.0303 -273.3117
694.9495 509.0909 -270.2318
694.9495 515.1515 -273.4407
694.9495 521.2121 -272.1006
694.9495 527.2727 -268.1684
694.9495 533.3333 -271.0454
694.9495 539.3939 -269.6714
694.9495 545.4545 -271.1168
694.9495 551.5151 -269.0830
694.9495 557.5757 -270.7231
694.9495 563.6364 -271.7256
694.9495 569.6970 -270.8333
694.9495 575.7576 -267.2163
694.9495 581.8182 -266.5199
694.9495 587.8788 -265.8726
694.9495 593.9394 -266.9159
694.9495 600.0000 -265.4092
703.0303 0.0000 -280.3381
703.0303 6.0606 -282.7287
703.0303 12.1212 -277.2663
703.0303 18.1818 -274.6682
703.0303 24.2424 -276.5538
703.0303 30.3030 -278.7565
703.0303 36.3636 -276.8070
703.0303 42.4242 -276.7278
703.0303 48.4848 -276.6221
703.0303 54.5455 -276.2635
703.0303 60.6061 -276.3090
703.0303 66.6667 -278.7388
703.0303 72.7273 -277.8426
703.0303 78.7879 -275.2404
703.0303 84.8485 -275.7549
703.0303 90.9091 -273.7595
703.0303 96.9697 -275.4169
703.0303 103.0303 -277.6708
703.0303 109.0909 -277.3108
703.0303 115.1515 -276.5978
703.0303 121.2121 -280.4755
703.0303 127.2727 -280.9621
703.0303 133.3333 -283.2797
703.0303 139.3939 -282.9994
703.0303 145.4545 -280.8849
703.0303 151.5152 -283.6812
703.0303 157.5758 -278.5887
703.0303 163.6364 -280.7304
703.0303 169.6970 -279.2903
703.0303 175.7576 -280.7309
703.0303 181.8182 -280.7610
703.0303 187.8788 -281.9413
703.0303 193.9394 -280.9958
703.0303 200.0000 -280.1958
703.0303 206.0606 -284.2220
703.0303 212.1212 -285.1573
703.0303 218.1818 -284.9989
703.0303 224.2424 -284.7185
703.0303 230.3030 -285.8374
703.0303 236.3636 -284.1532
703.0303 242.4242 -282.2502
703.0303 248.4848 -283.8582
703.0303 254.5455 -284.5361
703.0303 260.6060 -280.1807
703.0303 266.6667 -283.1242
703.0303 272.7273 -283.9427
703.0303 278.7879 -286.2426
703.0303 284.8485 -283.5466
703.0303 290.9091 -282.1107
703.0303 296.9697 -281.2167
703.0303 303.0303 -276.5842
703.0303 309.0909 -279.0231
703.0303 315.1515 -281.7558
703.0303 321.2121 -278.8286
703.0303 327.2727 -280.3151
703.0303 333.3333 -278.1830
703.0303 339.3939 -283.2211
703.0303 345.4545 -283.0111
703.0303 351.5151 -279.7142
703.0303 357.5757 -281.0763
703.0303 363.6364 -282.9803
703.0303 369.6970 -286.5691
703.0303 375.7576 -287.3516
703.0303 381.8182 -290.0080
703.0303 387.8788 -285.3302
703.0303 393.9394 -291.3905
703.0303 400.0000 -292.6638
703.0303 406.0606 -293.6749
703.0303 412.1212 -290.7573
703.0303 418.1818 -298.2296
703.0303 424.2424 -301.7570
703.0303 430.3030 -296.1737
703.0303 436.3636 -291.8144
703.0303 442.4242 -291.4167
703.0303 448.4848 -285.4956
703.0303 454.5454 -283.7868
703.0303 460.6060 -283.1934
703.0303 466.6667 -278.8840
703.0303 472.7273 -273.4696
703.0303 478.7879 -272.5583
703.0303 484.8485 -270.6560
703.0303 490.9091 -271.0911
703.0303 496.9697 -271.5494
703.0303 503.0303 -274.0523
703.0303 509.0909 -269.0457
703.0303 515.1515 -272.4339
703.0303 521.2121 -268.7166
703.0303 527.2727 -272.7800
703.0303 533.3333 -270.4644
703.0303 539.3939 -268.6088
703.0303 545.4545 -268.0194
703.0303 551.5151 -268.2554
703.0303 557.5757 -271.5919
703.0303 563.6364 -274.2276
703.0303 569.6970 -274.2920
703.0303 575.7576 -268.8291
703.0303 581.8182 -269.5271
703.0303 587.8788 -270.9656
703.0303 593.9394 -269.0236
703.0303 600.0000 -266.7853
711.1111 0.0000 -287.3528
711.1111 6.0606 -283.2135
711.1111 12.1212 -282.9915
711.1111 18.1818 -282.5366
711.1111 24.2424 -285.7098
711.1111 30.3030 -281.3073
711.1111 36.3636 -282.6070
711.1111 42.4242 -282.9905
711.1111 48.4848 -281.6975
711.1111 54.5455 -280.3218
711.1111 60.6061 -281.9027
711.1111 66.6667 -279.3433
711.1111 72.7273 -275.9420
711.1111 78.7879 -278.7149
711.1111 84.8485 -278.3370
711.1111 90.9091 -276.3389
711.1111 96.9697 -276.4184
711.1111 103.0303 -280.6393
711.1111 109.0909 -280.9527
711.1111 115.1515 -282.6479
711.1111 121.2121 -282.4002
711.1111 127.2727 -282.2058
711.1111 133.3333 -281.4392
711.1111 139.3939 -277.7415
711.1111 145.4545 -283.2343
711.1111 151.5152 -284.5013
711.1111 157.5758 -280.6330
711.1111 163.6364 -282.2356
711.1111 169.6970 -281.8889
711.1111 175.7576 -280.9787
711.1111 181.8182 -282.4503
711.1111 187.8788 -283.8505
711.1111 193.9394 -284.6663
711.1111 200.0000 -282.4840
711.1111 206.0606 -281.4690
711.1111 212.1212 -281.1381
711.1111 218.1818 -284.9575
711.1111 224.2424 -284.2273
711.1111 230.3030 -283.6690
711.1111 236.3636 -278.0081
711.1111 242.4242 -276.0164
711.1111 248.4848 -278.7961
711.1111 254.5455 -279.4490
