400
0.0000 -7.3940 0.0000
0.0000 -16.4029 31.5789
0.0000 -14.3067 63.1579
0.0000 -20.6620 94.7368
0.0000 -16.2550 126.3158
0.0000 -20.7117 157.8947
0.0000 -20.8450 189.4737
0.0000 -24.2400 221.0526
0.0000 -18.1300 252.6316
0.0000 -31.5372 284.2105
0.0000 -32.7400 315.7895
0.0000 -40.9367 347.3684
0.0000 -55.3700 378.9474
0.0000 -77.9050 410.5263
0.0000 -105.7320 442.1053
0.0000 -108.4417 473.6842
0.0000 -96.5050 505.2632
0.0000 -60.5700 536.8421
0.0000 -60.4533 568.4210
0.0000 -60.4533 600.0000
42.0970 -19.2817 0.0000
42.0970 -18.9900 31.5789
42.0970 -22.9356 63.1579
42.0970 -26.3729 94.7368
42.0970 -29.6250 126.3158
42.0970 -28.9722 157.8947
42.0970 -31.3100 189.4737
42.0970 -34.9083 221.0526
42.0970 -34.2667 252.6316
42.0970 -42.2433 284.2105
42.0970 -45.3160 315.7895
42.0970 -53.4545 347.3684
42.0970 -65.9100 378.9474
42.0970 -78.5840 410.5263
42.0970 -127.1000 442.1053
42.0970 -143.6925 473.6842
42.0970 -150.7900 505.2632
42.0970 -130.3600 536.8421
42.0970 -106.6986 568.4210
42.0970 -106.6986 600.0000
84.1941 -30.4725 0.0000
84.1941 -35.6562 31.5789
84.1941 -33.5250 63.1579
84.1941 -37.1414 94.7368
84.1941 -39.6786 126.3158
84.1941 -40.3960 157.8947
84.1941 -43.8022 189.4737
84.1941 -44.7400 221.0526
84.1941 -49.0233 252.6316
84.1941 -57.6333 284.2105
84.1941 -58.7133 315.7895
84.1941 -69.5117 347.3684
84.1941 -80.7043 378.9474
84.1941 -82.2550 410.5263
84.1941 -112.8567 442.1053
84.1941 -166.7500 473.6842
84.1941 -182.8050 505.2632
84.1941 -158.5500 536.8421
84.1941 -132.7200 568.4210
84.1941 -132.7200 600.0000
126.2911 -47.1750 0.0000
126.2911 -46.7200 31.5789
126.2911 -49.9730 63.1579
126.2911 -48.4700 94.7368
126.2911 -56.4300 126.3158
126.2911 -56.0217 157.8947
126.2911 -58.4083 189.4737
126.2911 -56.9311 221.0526
126.2911 -74.0320 252.6316
126.2911 -75.7817 284.2105
126.2911 -75.1700 315.7895
126.2911 -80.5080 347.3684
126.2911 -91.5240 378.9474
126.2911 -119.9278 410.5263
126.2911 -145.2567 442.1053
126.2911 -173.9190 473.6842
126.2911 -198.4050 505.2632
126.2911 -178.4800 536.8421
126.2911 -166.5825 568.4210
126.2911 -166.5825 600.0000
168.3882 -54.3000 0.0000
168.3882 -62.2938 31.5789
168.3882 -58.2300 63.1579
168.3882 -64.5472 94.7368
168.3882 -66.1180 126.3158
168.3882 -74.2686 157.8947
168.3882 -89.0550 189.4737
168.3882 -88.7686 221.0526
168.3882 -84.4950 252.6316
168.3882 -88.8733 284.2105
168.3882 -96.8513 315.7895
168.3882 -102.8286 347.3684
168.3882 -104.2950 378.9474
168.3882 -145.0100 410.5263
168.3882 -166.6300 442.1053
168.3882 -190.1633 473.6842
168.3882 -207.2060 505.2632
168.3882 -207.9550 536.8421
168.3882 -199.3520 568.4210
168.3882 -199.3520 600.0000
210.4852 -75.0750 0.0000
210.4852 -78.6586 31.5789
210.4852 -89.9250 63.1579
210.4852 -86.7850 94.7368
210.4852 -95.1783 126.3158
210.4852 -102.2943 157.8947
210.4852 -114.7550 189.4737
210.4852 -124.8250 221.0526
210.4852 -109.7080 252.6316
210.4852 -110.4450 284.2105
210.4852 -119.2950 315.7895
210.4852 -125.5333 347.3684
210.4852 -130.0056 378.9474
210.4852 -164.9600 410.5263
210.4852 -180.6088 442.1053
210.4852 -202.7600 473.6842
210.4852 -220.5462 505.2632
210.4852 -232.7864 536.8421
210.4852 -218.3067 568.4210
210.4852 -218.3067 600.0000
252.5822 -96.2800 0.0000
252.5822 -93.0800 31.5789
252.5822 -112.8243 63.1579
252.5822 -124.2756 94.7368
252.5822 -122.0800 126.3158
252.5822 -129.9650 157.8947
252.5822 -137.3333 189.4737
252.5822 -140.8645 221.0526
252.5822 -144.8900 252.6316
252.5822 -149.5450 284.2105
252.5822 -153.2367 315.7895
252.5822 -157.6982 347.3684
252.5822 -170.0139 378.9474
252.5822 -179.2684 410.5263
252.5822 -191.8818 442.1053
252.5822 -217.2871 473.6842
252.5822 -232.6080 505.2632
252.5822 -242.7300 536.8421
252.5822 -240.9889 568.4210
252.5822 -240.9889 600.0000
294.6793 -127.8850 0.0000
294.6793 -123.5333 31.5789
294.6793 -142.3075 63.1579
294.6793 -159.7750 94.7368
294.6793 -157.9138 126.3158
294.6793 -155.9600 157.8947
294.6793 -157.2200 189.4737
294.6793 -161.2109 221.0526
294.6793 -168.9791 252.6316
294.6793 -171.4900 284.2105
294.6793 -176.4231 315.7895
294.6793 -179.1640 347.3684
294.6793 -184.7300 378.9474
294.6793 -204.5167 410.5263
294.6793 -218.1810 442.1053
294.6793 -226.9500 473.6842
294.6793 -247.1156 505.2632
294.6793 -250.0100 536.8421
294.6793 -247.8445 568.4210
294.6793 -247.8445 600.0000
336.7763 -159.6500 0.0000
336.7763 -159.8575 31.5789
336.7763 -163.0491 63.1579
336.7763 -170.9156 94.7368
336.7763 -176.6346 126.3158
336.7763 -174.0594 157.8947
336.7763 -177.1646 189.4737
336.7763 -175.7089 221.0526
336.7763 -181.9736 252.6316
336.7763 -185.3657 284.2105
336.7763 -189.8364 315.7895
336.7763 -193.6038 347.3684
336.7763 -207.4909 378.9474
336.7763 -216.3850 410.5263
336.7763 -225.6184 442.1053
336.7763 -245.0850 473.6842
336.7763 -255.3800 505.2632
336.7763 -258.2536 536.8421
336.7763 -257.6025 568.4210
336.7763 -257.6025 600.0000
378.8734 -174.1400 0.0000
378.8734 -175.2055 31.5789
378.8734 -182.8667 63.1579
378.8734 -185.8433 94.7368
378.8734 -192.3450 126.3158
378.8734 -192.1600 157.8947
378.8734 -194.1936 189.4737
378.8734 -195.1700 221.0526
378.8734 -196.4914 252.6316
378.8734 -202.2273 284.2105
378.8734 -209.5840 315.7895
378.8734 -212.0759 347.3684
378.8734 -219.2142 378.9474
378.8734 -229.6644 410.5263
378.8734 -244.6850 442.1053
378.8734 -254.9872 473.6842
378.8734 -268.3130 505.2632
378.8734 -264.8970 536.8421
378.8734 -262.2033 568.4210
378.8734 -262.2033 600.0000
420.9704 -193.7675 0.0000
420.9704 -196.9559 31.5789
420.9704 -206.7200 63.1579
420.9704 -204.9153 94.7368
420.9704 -208.3700 126.3158
420.9704 -204.5300 157.8947
420.9704 -210.3222 189.4737
420.9704 -210.2791 221.0526
420.9704 -209.3139 252.6316
420.9704 -217.3256 284.2105
420.9704 -221.7600 315.7895
420.9704 -231.6741 347.3684
420.9704 -240.7120 378.9474
420.9704 -247.7437 410.5263
420.9704 -255.0450 442.1053
420.9704 -267.9663 473.6842
420.9704 -267.6100 505.2632
420.9704 -266.0778 536.8421
420.9704 -254.0600 568.4210
420.9704 -254.0600 600.0000
463.0674 -208.8875 0.0000
463.0674 -213.3625 31.5789
463.0674 -216.6234 63.1579
463.0674 -218.4367 94.7368
463.0674 -218.8986 126.3158
463.0674 -221.8518 157.8947
463.0674 -225.2584 189.4737
463.0674 -225.6850 221.0526
463.0674 -225.4740 252.6316
463.0674 -230.8814 284.2105
463.0674 -236.8186 315.7895
463.0674 -241.2500 347.3684
463.0674 -246.6762 378.9474
463.0674 -259.3457 410.5263
463.0674 -268.6934 442.1053
463.0674 -273.1620 473.6842
463.0674 -270.2820 505.2632
463.0674 -253.9129 536.8421
463.0674 -243.2179 568.4210
463.0674 -243.2179 600.0000
505.1645 -221.2430 0.0000
505.1645 -223.5633 31.5789
505.1645 -227.1875 63.1579
505.1645 -225.7200 94.7368
505.1645 -230.0708 126.3158
505.1645 -228.6254 157.8947
505.1645 -236.5111 189.4737
505.1645 -242.1234 221.0526
505.1645 -239.8500 252.6316
505.1645 -244.2020 284.2105
505.1645 -248.0243 315.7895
505.1645 -255.2563 347.3684
505.1645 -263.9538 378.9474
505.1645 -269.1812 410.5263
505.1645 -281.0100 442.1053
505.1645 -276.4472 473.6842
505.1645 -261.5887 505.2632
505.1645 -247.6892 536.8421
505.1645 -224.8309 568.4210
505.1645 -224.8309 600.0000
547.2615 -234.3584 0.0000
547.2615 -240.0160 31.5789
547.2615 -239.7587 63.1579
547.2615 -242.9291 94.7368
547.2615 -237.2278 126.3158
547.2615 -240.7655 157.8947
547.2615 -242.8750 189.4737
547.2615 -252.0038 221.0526
547.2615 -255.1501 252.6316
547.2615 -257.9320 284.2105
547.2615 -261.0573 315.7895
547.2615 -263.0710 347.3684
547.2615 -266.9230 378.9474
547.2615 -272.6100 410.5263
547.2615 -278.7122 442.1053
547.2615 -269.8346 473.6842
547.2615 -254.2133 505.2632
547.2615 -239.0967 536.8421
547.2615 -232.4327 568.4210
547.2615 -232.4327 600.0000
589.3585 -250.4837 0.0000
589.3585 -247.5737 31.5789
589.3585 -249.9417 63.1579
589.3585 -250.0840 94.7368
589.3585 -255.0558 126.3158
589.3585 -256.2690 157.8947
589.3585 -256.5125 189.4737
589.3585 -258.9520 221.0526
589.3585 -262.6010 252.6316
589.3585 -264.3100 284.2105
589.3585 -267.5650 315.7895
589.3585 -267.6672 347.3684
589.3585 -270.0889 378.9474
589.3585 -281.9118 410.5263
589.3585 -279.1367 442.1053
589.3585 -259.9160 473.6842
589.3585 -251.6767 505.2632
589.3585 -243.7060 536.8421
589.3585 -238.3367 568.4210
589.3585 -238.3367 600.0000
631.4556 -260.8563 0.0000
631.4556 -258.1233 31.5789
631.4556 -260.3462 63.1579
631.4556 -260.2300 94.7368
631.4556 -261.9134 126.3158
631.4556 -266.0925 157.8947
631.4556 -269.9350 189.4737
631.4556 -269.9813 221.0526
631.4556 -267.5858 252.6316
631.4556 -273.8092 284.2105
631.4556 -273.7775 315.7895
631.4556 -270.3982 347.3684
631.4556 -280.6882 378.9474
631.4556 -279.6453 410.5263
631.4556 -274.0886 442.1053
631.4556 -259.9180 473.6842
631.4556 -258.4100 505.2632
631.4556 -252.6237 536.8421
631.4556 -257.4600 568.4210
631.4556 -257.4600 600.0000
673.5526 -272.4890 0.0000
673.5526 -273.6429 31.5789
673.5526 -268.7946 63.1579
673.5526 -271.4317 94.7368
673.5526 -279.7757 126.3158
673.5526 -275.9033 157.8947
673.5526 -276.2427 189.4737
673.5526 -275.7331 221.0526
673.5526 -281.9562 252.6316
673.5526 -280.4218 284.2105
673.5526 -278.7550 315.7895
673.5526 -281.3083 347.3684
673.5526 -288.2333 378.9474
673.5526 -291.6986 410.5263
673.5526 -273.1328 442.1053
673.5526 -263.8972 473.6842
673.5526 -272.3567 505.2632
673.5526 -273.2567 536.8421
673.5526 -265.0925 568.4210
673.5526 -266.7100 600.0000
715.6497 -291.4078 0.0000
715.6497 -287.9556 31.5789
715.6497 -284.1534 63.1579
715.6497 -285.8415 94.7368
715.6497 -282.8564 126.3158
715.6497 -282.8614 157.8947
715.6497 -286.3867 189.4737
715.6497 -283.4475 221.0526
715.6497 -284.5900 252.6316
715.6497 -288.2000 284.2105
715.6497 -285.8250 315.7895
715.6497 -293.6167 347.3684
715.6497 -292.5890 378.9474
715.6497 -290.0220 410.5263
715.6497 -290.9067 442.1053
715.6497 -280.5457 473.6842
715.6497 -274.1950 505.2632
715.6497 -280.2088 536.8421
715.6497 -276.7700 568.4210
715.6497 -276.7700 600.0000
757.7467 -302.9790 0.0000
757.7467 -305.5000 31.5789
757.7467 -301.6514 63.1579
757.7467 -298.9320 94.7368
757.7467 -290.9456 126.3158
757.7467 -288.7060 157.8947
757.7467 -287.5100 189.4737
757.7467 -286.6080 221.0526
757.7467 -292.7883 252.6316
757.7467 -287.7040 284.2105
757.7467 -298.5175 315.7895
757.7467 -298.2900 347.3684
757.7467 -304.7350 378.9474
757.7467 -306.6300 410.5263
757.7467 -295.3350 442.1053
757.7467 -289.2340 473.6842
757.7467 -285.5817 505.2632
757.7467 -286.1575 536.8421
757.7467 -288.0720 568.4210
757.7467 -288.0720 600.0000
799.8438 -288.0720 0.0000
799.8438 -288.0720 31.5789
799.8438 -288.0720 63.1579
799.8438 -288.0720 94.7368
799.8438 -288.0720 126.3158
799.8438 -288.0720 157.8947
799.8438 -295.3500 189.4737
799.8438 -295.3500 221.0526
799.8438 -295.3500 252.6316
799.8438 -296.5900 284.2105
799.8438 -296.5900 315.7895
799.8438 -296.5900 347.3684
799.8438 -296.5900 378.9474
799.8438 -296.5900 410.5263
799.8438 -296.5900 442.1053
799.8438 -296.5900 473.6842
799.8438 -296.5900 505.2632
799.8438 -296.5900 536.8421
799.8438 -296.5900 568.4210
799.8438 -296.5900 600.0000
