341261.60 6838144.29 578.94
341261.59 6838136.01 561.85
341295.29 6838148.20 565.95
341275.26 6838131.70 572.19
341307.50 6838144.52 564.96
341298.93 6838135.45 565.74
341324.94 6838145.94 583.88
341274.39 6838113.71 557.61
341332.66 6838143.50 571.39
341334.31 6838140.97 570.36
341348.03 6838145.35 599.39
341305.56 6838119.35 562.74
341266.76 6838094.53 553.46
341244.64 6838079.96 560.33
341253.87 6838082.19 556.87
341288.82 6838100.28 552.22
341345.12 6838129.63 567.47
341336.06 6838120.80 561.90
341315.32 6838106.99 571.52
341282.80 6838086.33 555.68
341258.75 6838069.12 571.72
341258.04 6838065.94 572.14
341341.40 6838110.76 571.37
341303.34 6838086.49 554.85
341304.49 6838084.51 551.30
341316.65 6838088.59 550.54
341277.48 6838063.43 565.69
341278.04 6838060.77 565.71
341347.49 6838098.47 549.07
341289.87 6838061.51 552.85
341284.62 6838055.18 565.07
341264.59 6838042.07 579.56
341250.01 6838030.45 579.52
341250.03 6838027.39 580.42
341342.04 6838077.40 547.32
341302.27 6838051.97 570.68
341260.73 6838023.87 578.03
341301.43 6838042.27 556.60
341319.53 6838048.38 562.15
341327.36 6838047.54 556.93
341335.79 6838046.42 556.87
341312.00 6838025.41 561.25
341336.12 6838029.61 558.61
341248.35 6838159.15 573.69
341244.43 6838169.93 561.08
341244.50 6838176.89 561.61
341228.68 6838176.52 561.62
341189.10 6838158.80 563.45
341207.00 6838178.84 570.53
341210.06 6838184.04 567.16
341157.65 6838161.86 571.99
341174.99 6838176.49 564.93
341168.30 6838182.08 565.28
341351.05 6838154.12 586.45
341343.93 6838159.35 601.10
341337.03 6838161.60 584.09
341347.10 6838172.24 607.91
341312.37 6838157.15 583.14
341332.86 6838173.39 592.86
341302.65 6838160.55 585.11
341310.03 6838169.00 583.20
341287.64 6838160.72 569.11
341271.90 6838157.06 567.68
341286.05 6838170.69 586.34
341265.04 6838163.18 567.58
341281.40 6838178.31 582.28
341272.56 6838179.43 581.63
341250.69 6838183.53 585.55
341101.59 6837830.80 681.62
341111.87 6837823.86 672.87
341113.02 6837816.30 675.84
341102.24 6837804.74 669.98
341117.59 6837790.95 679.58
341063.42 6837970.94 682.17
341066.30 6837966.00 692.41
341129.40 6837966.89 638.76
341119.34 6837963.66 659.77
341089.97 6837959.51 663.26
341104.76 6837957.82 653.21
341110.67 6837955.92 650.16
341128.67 6837954.48 649.00
341125.37 6837951.55 646.15
341080.52 6837945.70 663.92
341068.03 6837942.63 672.48
341103.13 6837840.64 682.34
341098.38 6837847.58 672.28
341116.00 6837854.49 659.74
341117.75 6837860.10 661.17
341118.93 6837866.12 656.58
341115.74 6837871.16 672.62
341113.63 6837875.36 673.88
341096.93 6837879.18 663.96
341112.18 6837884.86 667.25
341126.55 6837890.31 658.31
341122.01 6837894.85 653.73
341076.93 6837896.04 680.36
341105.76 6837901.97 666.31
341122.47 6837907.29 664.02
341083.83 6837909.26 669.57
341080.33 6837912.45 683.68
341121.88 6837919.78 651.73
341095.29 6837920.66 679.56
341087.85 6837924.39 666.69
341089.42 6837928.43 662.41
341083.60 6837931.76 667.07
341115.10 6837936.87 659.05
341071.12 6837937.21 674.00
341124.32 6837943.95 645.21
341063.35 6837995.62 667.25
341061.28 6837992.27 668.09
341057.45 6837988.95 677.58
341062.09 6837987.05 679.40
341107.67 6837987.81 652.52
341112.64 6837985.68 642.68
341075.84 6837981.23 675.89
341074.35 6837978.61 682.24
341065.62 6837975.46 682.28
341057.48 6837972.46 675.89
341086.61 6837972.28 667.63
341127.82 6837970.52 638.38
341106.43 6837829.41 683.51
341122.73 6837830.99 660.32
341102.86 6837808.56 669.13
341105.22 6837797.31 670.51
341110.83 6837785.82 675.92
341060.97 6837965.39 687.58
341063.62 6837956.29 690.72
341075.01 6837955.90 686.53
341091.85 6837961.12 657.29
341102.36 6837962.51 651.64
341118.74 6837968.40 657.37
341110.73 6837958.56 663.45
341092.95 6837944.04 675.70
341113.59 6837953.43 663.44
341075.66 6837927.58 667.22
341102.26 6837939.48 654.14
341106.37 6837839.75 674.75
341123.46 6837856.76 659.53
341102.29 6837851.24 665.75
341091.86 6837852.07 669.00
341125.12 6837876.12 657.79
341093.89 6837864.60 666.83
341118.30 6837884.36 657.97
341119.58 6837890.36 654.67
341084.32 6837874.19 669.31
341097.76 6837888.14 669.36
341115.59 6837903.52 659.81
341125.65 6837913.88 649.46
341125.06 6837918.01 648.94
341114.34 6837916.32 653.27
341077.98 6837898.76 668.93
341120.83 6837929.20 647.42
341091.94 6837915.73 666.00
341099.13 6837924.13 667.83
341111.23 6837935.11 651.16
341072.38 6837915.87 675.31
341132.58 6837955.73 639.22
341061.16 6837998.01 679.57
341064.49 6837989.53 680.65
341083.03 6837995.28 662.30
341069.97 6837981.46 669.18
341092.41 6837990.06 648.63
341078.17 6837975.70 667.03
341097.18 6837982.06 648.36
341095.76 6837976.50 651.02
341126.53 6837989.46 633.55
341131.82 6837985.97 636.61
341135.23 6837981.16 634.18
340805.43 6837653.95 824.73
340805.29 6837637.49 823.42
340829.96 6837651.92 821.75
340855.63 6837649.06 811.31
340827.56 6837645.47 812.06
340828.76 6837643.84 819.55
340931.96 6837646.50 784.93
340898.20 6837643.35 798.47
340862.86 6837640.41 813.62
340836.80 6837638.03 809.88
340931.96 6837640.72 791.10
340891.55 6837637.12 798.37
340850.09 6837634.13 807.52
340945.27 6837636.66 789.20
340909.55 6837633.60 804.81
340877.93 6837630.60 809.68
340840.03 6837627.30 824.56
340937.90 6837630.01 781.54
340934.19 6837627.75 782.40
340919.41 6837625.54 802.84
340878.18 6837621.92 802.59
340867.49 6837619.06 804.85
340905.24 6837618.72 806.19
340931.54 6837616.81 784.19
340933.11 6837612.04 788.95
340948.69 6837703.73 774.39
340936.24 6837748.39 775.56
340882.63 6837910.65 775.60
340946.20 6837907.98 758.38
340945.26 6837904.35 748.15
340944.91 6837900.71 749.72
340888.87 6837893.96 776.02
340891.85 6837890.04 775.67
340922.86 6837887.68 771.08
340925.65 6837883.07 767.32
340961.39 6837880.92 747.83
340928.16 6837875.11 770.40
340936.91 6837871.85 759.00
340950.72 6837868.35 754.19
340947.70 6837862.81 755.88
340927.14 6837856.57 767.13
340935.85 6837852.04 776.90
340935.79 6837846.95 766.77
340916.80 6837840.38 775.96
340916.76 6837834.12 776.13
340936.65 6837828.14 771.85
340934.18 6837821.13 772.33
340948.87 6837814.78 769.55
340954.77 6837805.31 761.41
340952.46 6837796.54 771.06
340949.00 6837784.67 775.91
340807.82 6837780.29 808.00
340818.44 6837769.76 804.54
340814.73 6837658.33 815.23
340800.36 6837673.43 818.31
340811.91 6837686.18 832.14
340814.68 6837695.17 812.60
340804.34 6837707.76 820.71
340814.75 6837719.70 822.84
340808.78 6837727.24 817.76
340812.39 6837737.56 808.26
340804.11 6837746.34 811.14
340816.87 6837754.95 806.13
340808.70 6837762.08 814.51
340829.70 6837779.17 803.14
340892.99 6837780.02 798.24
340923.37 6837779.00 778.72
340920.06 6837777.32 780.17
340927.50 6837775.55 778.34
340909.36 6837773.15 793.68
340901.04 6837770.80 789.91
340922.36 6837770.42 782.97
340824.37 6837763.84 802.86
340911.81 6837649.42 792.09
340883.07 6837651.83 801.54
340927.19 6837656.27 786.92
340934.02 6837658.61 791.32
340859.26 6837656.71 811.66
340922.79 6837660.60 784.33
340864.55 6837659.31 821.38
340912.96 6837662.55 788.39
340898.95 6837664.22 792.60
340821.97 6837662.37 815.68
340908.60 6837667.25 789.74
340864.81 6837666.51 819.96
340867.53 6837667.94 800.73
340890.31 6837670.80 794.37
340819.82 6837669.00 815.17
340846.37 6837671.56 804.37
340897.22 6837675.15 792.36
340877.55 6837676.24 810.20
340900.10 6837678.94 797.61
340852.31 6837678.02 818.38
340874.03 6837681.23 798.01
340906.11 6837684.32 788.64
340888.28 6837684.66 797.77
340938.68 6837688.14 778.52
340830.93 6837684.77 815.04
340916.80 6837690.00 801.79
340938.82 6837692.40 795.94
340818.53 6837689.10 831.41
340906.35 6837694.21 787.80
340945.22 6837697.49 782.39
340851.82 6837695.01 802.41
340901.89 6837698.34 788.92
340869.73 6837698.19 808.40
340894.48 6837700.87 792.17
340950.26 6837704.92 777.64
340935.41 6837706.29 786.63
340823.67 6837702.86 822.58
340842.60 6837705.47 804.17
340942.22 6837710.61 776.77
340838.93 6837708.00 814.11
340885.60 6837711.58 797.90
340934.20 6837715.14 782.49
340820.77 6837711.95 819.21
340938.84 6837718.68 793.85
340824.95 6837715.60 805.54
340859.67 6837718.57 813.02
340928.69 6837723.10 784.55
340881.35 6837722.08 814.21
340898.66 6837724.43 796.88
340864.30 6837724.17 808.86
340837.94 6837724.93 802.33
340895.48 6837729.03 789.73
340938.76 6837731.91 776.60
340951.25 6837734.42 778.75
340903.23 6837733.65 795.25
340912.09 6837735.94 784.70
340940.64 6837738.83 788.63
340853.84 6837736.45 811.21
340883.76 6837739.39 800.06
340899.41 6837741.35 795.40
340850.88 6837740.67 801.24
340897.50 6837744.30 798.85
340860.83 6837744.68 800.09
340886.54 6837747.40 793.00
340902.51 6837749.92 785.82
340952.35 6837753.54 784.41
340823.58 6837749.51 804.74
340872.60 6837753.32 795.87
340897.80 6837755.82 790.09
340917.97 6837758.66 788.12
340907.71 6837760.03 795.36
340905.77 6837762.00 791.17
340894.49 6837763.11 788.29
340909.19 6837765.79 797.50
340816.62 6837914.27 806.64
340809.51 6837908.83 811.42
340820.16 6837902.58 793.97
340805.90 6837896.52 800.99
340828.75 6837889.60 797.84
340812.81 6837882.78 808.54
340802.54 6837875.86 802.65
340824.38 6837868.73 796.63
340814.52 6837861.40 801.07
340800.43 6837853.97 805.42
340812.98 6837848.32 802.35
340801.49 6837842.00 806.26
340811.88 6837833.70 809.66
340803.57 6837826.34 806.71
340811.90 6837820.69 819.09
340818.74 6837811.32 812.69
340808.72 6837804.40 806.06
340820.89 6837798.62 804.20
340822.80 6837791.59 811.75
340862.12 6837912.27 782.48
340903.86 6837910.45 777.07
340889.70 6837905.86 780.69
340857.64 6837901.06 784.83
340843.64 6837897.93 788.96
340869.11 6837896.35 781.69
340857.33 6837892.78 801.99
340865.65 6837889.77 796.10
340865.23 6837887.28 784.07
340851.12 6837884.19 797.92
340898.32 6837883.76 780.66
340835.53 6837878.77 798.33
340831.38 6837876.11 812.28
340900.75 6837876.64 779.33
340912.49 6837874.53 785.22
340891.57 6837871.16 793.72
340863.66 6837867.69 795.97
340902.98 6837867.65 787.32
340866.63 6837863.28 798.59
340839.65 6837859.51 800.65
340846.36 6837857.26 792.34
340883.63 6837856.98 782.61
340839.45 6837852.71 793.66
340884.81 6837852.63 794.00
340834.73 6837848.34 804.01
340839.23 6837846.57 794.27
340839.93 6837845.17 795.72
340849.18 6837843.76 792.98
340885.63 6837843.66 797.04
340926.07 6837842.68 780.39
340854.95 6837836.99 802.94
340909.52 6837837.33 778.14
340850.67 6837832.31 803.26
340861.17 6837831.26 790.67
340872.58 6837829.64 790.44
340883.82 6837828.59 785.31
340899.47 6837827.29 783.00
340891.49 6837825.63 794.31
340880.05 6837823.29 795.26
340874.18 6837821.51 796.45
340881.12 6837819.79 799.55
340891.22 6837818.63 785.47
340903.60 6837817.03 788.45
340827.64 6837811.67 800.54
340855.56 6837811.18 793.69
340868.22 6837810.05 798.36
340889.42 6837809.19 787.22
340948.17 6837809.75 778.95
340830.77 6837802.73 801.07
340936.75 6837805.72 787.68
340935.33 6837803.81 782.26
340936.19 6837802.09 787.10
340954.13 6837801.15 779.42
340943.92 6837799.08 784.58
340847.42 6837792.54 796.77
340857.36 6837790.70 794.93
340843.72 6837788.50 805.94
340950.77 6837791.78 782.18
340848.80 6837785.83 798.42
340914.53 6837786.23 780.93
340907.35 6837782.09 782.42
340960.39 6837640.75 775.09
340971.53 6837636.63 771.52
340994.19 6837634.78 766.17
341027.86 6837634.08 746.49
341076.48 6837634.06 719.93
341022.42 6837629.24 762.90
340991.73 6837624.47 773.60
341045.76 6837624.41 739.08
340994.33 6837620.17 767.12
341049.10 6837620.36 743.80
341025.22 6837616.89 750.57
341012.54 6837613.87 771.32
341006.11 6837610.82 761.52
341013.86 6837608.03 757.99
341047.02 6837607.29 739.02
341045.37 6837603.71 744.48
341087.45 6837636.21 730.31
341087.04 6837625.27 721.68
341077.91 6837617.23 736.89
341093.83 6837607.88 717.35
340947.49 6837644.35 785.57
340953.22 6837637.83 780.15
340959.27 6837631.58 791.23
340948.14 6837624.43 781.81
340955.80 6837619.72 785.15
340966.23 6837615.78 779.94
340970.91 6837612.36 792.08
341015.81 6837608.91 776.79
340992.03 6837773.04 752.84
340965.36 6837767.90 767.17
340997.00 6837766.92 757.14
341005.99 6837765.73 741.84
341058.50 6837639.76 728.81
341072.73 6837644.82 720.24
340999.79 6837644.48 762.93
340973.98 6837646.07 773.57
341020.77 6837650.76 759.91
341068.36 6837655.10 725.12
341010.66 6837654.68 754.20
340997.13 6837655.95 761.50
341066.45 6837661.32 727.39
340973.84 6837660.06 775.39
341038.93 6837664.82 745.24
341037.02 6837666.41 741.42
341017.17 6837667.42 749.63
341021.53 6837670.41 753.43
340992.14 6837671.16 772.51
341072.45 6837676.47 721.72
341023.57 6837676.46 744.50
341019.07 6837678.83 746.58
341005.00 6837679.80 766.84
341027.28 6837683.60 752.42
341052.71 6837686.60 728.26
341081.99 6837689.94 711.71
340978.61 6837687.98 771.35
340951.77 6837688.62 775.43
341050.96 6837694.93 725.35
341004.30 6837694.81 754.09
340965.66 6837695.53 771.75
341014.22 6837698.96 747.73
341053.72 6837703.13 734.12
341079.12 6837705.84 703.19
341022.32 6837705.51 749.11
341044.55 6837708.32 751.10
341053.20 6837710.59 720.25
340956.57 6837707.69 771.35
340954.59 6837709.51 771.73
340986.76 6837712.22 759.24
340988.53 6837714.39 772.26
340997.81 6837716.41 766.79
341048.89 6837720.96 730.89
341068.41 6837723.41 708.54
340992.69 6837722.53 766.80
341071.24 6837727.34 703.07
341005.12 6837726.59 749.54
340966.58 6837726.88 775.33
341023.40 6837730.80 739.26
341002.91 6837731.93 750.44
341007.07 6837733.76 749.29
340962.84 6837733.84 768.01
340990.25 6837736.80 754.53
340979.53 6837738.36 759.97
341009.56 6837741.34 744.18
340978.13 6837741.91 774.29
340955.98 6837742.73 775.91
340998.23 6837745.98 761.19
341016.41 6837748.60 753.19
340973.37 6837748.74 765.74
340978.48 6837750.74 759.92
340980.61 6837752.77 758.38
341001.39 6837755.37 745.87
341075.76 6837760.81 692.10
341037.17 6837760.95 719.41
341042.52 6837763.28 715.02
341083.80 6837766.61 686.66
341089.63 6837644.27 718.88
341079.97 6837652.89 731.09
341090.49 6837661.35 727.64
341082.34 6837668.72 721.38
341102.17 6837678.56 704.21
341091.10 6837686.78 706.17
341092.91 6837695.46 695.44
341091.63 6837705.25 701.32
341097.83 6837715.57 704.25
341090.69 6837724.21 704.57
341110.31 6837733.98 677.56
341113.42 6837744.30 680.06
341112.09 6837753.85 670.85
341093.59 6837763.05 680.54
340998.87 6837904.66 738.23
340984.19 6837900.65 738.06
341056.60 6837901.12 694.90
341084.12 6837900.28 665.52
341053.65 6837896.77 692.55
341015.21 6837893.78 737.01
340979.69 6837890.47 746.69
341096.88 6837894.17 669.02
341053.61 6837890.65 703.70
341042.07 6837888.20 701.24
341022.01 6837885.65 723.97
340994.85 6837882.93 755.21
340975.70 6837880.48 757.49
341087.51 6837883.52 666.54
341060.84 6837881.04 696.22
341019.77 6837876.75 720.29
341022.95 6837875.01 715.59
341001.40 6837872.73 750.17
340981.90 6837870.55 754.91
340979.16 6837868.44 750.91
340965.92 6837865.71 764.90
341092.49 6837869.29 666.62
341065.72 6837867.14 695.30
341058.31 6837864.96 701.66
341050.32 6837863.07 713.27
341026.68 6837860.19 722.44
340985.17 6837857.24 753.53
340971.79 6837854.76 756.23
341080.03 6837858.11 689.29
341053.36 6837855.47 701.54
341034.88 6837853.06 717.51
341018.74 6837850.92 725.90
340997.69 6837848.65 738.33
340968.85 6837845.57 751.91
341075.29 6837848.22 686.27
341050.26 6837845.34 708.56
341027.13 6837842.37 722.07
340998.13 6837839.81 736.90
340989.18 6837837.49 749.70
340989.82 6837836.08 749.09
341009.52 6837834.78 727.72
341021.24 6837833.79 719.63
341025.56 6837832.08 716.72
341045.66 6837831.53 713.49
341051.28 6837829.86 703.57
341033.96 6837827.66 714.69
341021.72 6837825.20 720.42
341014.03 6837823.36 729.54
341008.53 6837821.07 729.99
341004.11 6837819.38 740.12
341000.95 6837817.42 736.26
341017.39 6837816.80 724.77
341029.89 6837815.31 719.98
341032.49 6837813.98 715.10
341035.12 6837812.11 709.87
341011.93 6837809.71 728.38
341005.89 6837807.27 743.03
341012.34 6837805.99 728.20
341005.60 6837803.76 741.18
340992.04 6837801.86 764.23
340990.40 6837799.77 755.46
340971.86 6837797.29 763.99
340968.45 6837794.92 768.50
340969.24 6837793.29 762.60
341086.51 6837797.04 678.73
341079.48 6837795.35 691.62
341068.35 6837793.28 691.20
341057.97 6837790.70 715.45
341060.87 6837788.92 716.78
341068.29 6837787.56 697.42
341071.60 6837785.76 694.17
340979.10 6837779.55 755.90
341084.37 6837782.54 700.75
340992.60 6837776.28 755.08
341072.65 6837777.27 695.48
341056.62 6837773.54 704.45
341115.95 6837894.87 663.95
341127.97 6837887.07 665.07
341123.22 6837879.70 661.68
341100.88 6837872.92 666.39
341099.92 6837864.90 664.97
341097.00 6837858.00 667.04
341098.96 6837850.42 670.58
341117.25 6837842.29 667.55
341099.17 6837834.90 673.82
341108.32 6837828.53 678.72
341092.22 6837820.98 670.95
341097.01 6837813.90 671.41
341094.96 6837805.91 672.35
341110.22 6837797.94 670.25
341100.57 6837790.46 677.06
341101.99 6837783.21 688.48
341113.02 6837774.60 677.18
340977.49 6837646.19 776.68
340948.51 6837653.11 777.94
340952.79 6837660.74 779.45
340956.19 6837668.98 778.53
340977.43 6837676.32 776.34
340953.74 6837685.18 797.68
340968.27 6837692.80 780.52
340959.74 6837707.17 781.16
340952.72 6837729.02 790.36
340829.59 6837994.55 775.45
340807.21 6838002.95 771.69
340809.90 6838009.26 768.91
340801.39 6838015.11 759.00
340806.46 6838022.99 756.06
340915.83 6837991.63 753.75
340931.52 6837990.42 746.54
340848.25 6837985.20 774.48
340963.79 6837987.10 740.05
340867.44 6837981.53 774.77
340906.93 6837981.38 759.31
340945.99 6837981.20 748.70
340873.58 6837976.40 773.85
340953.61 6837977.42 733.94
340948.35 6837975.32 750.77
340853.41 6837969.42 776.45
340920.03 6837969.95 760.46
340881.65 6837966.69 771.96
340890.66 6837964.14 765.58
340914.49 6837963.09 774.63
340963.32 6837963.21 745.14
340958.25 6837960.33 746.26
340938.53 6837956.66 742.96
340962.29 6837955.50 735.63
340896.70 6837950.12 763.55
340964.77 6837951.45 744.13
340920.33 6837947.19 752.91
340945.09 6837944.87 754.17
340957.93 6837942.62 754.50
340924.39 6837939.64 752.46
340885.50 6837935.46 772.56
340875.42 6837932.58 775.98
340957.34 6837932.88 741.33
340942.94 6837929.47 745.54
340927.91 6837925.71 751.63
340934.75 6837923.32 772.14
340943.77 6837921.05 762.89
340946.91 6837917.62 746.22
340951.31 6837914.22 745.37
340883.64 6837992.51 767.75
340947.92 6837996.52 739.63
340945.79 6837998.32 743.08
340916.92 6837998.68 756.62
340904.98 6838000.44 760.94
340869.43 6838000.82 763.99
340944.79 6838005.98 730.09
340866.50 6838004.32 762.78
340844.49 6838005.25 770.47
340865.08 6838008.55 759.56
340877.79 6838011.91 757.36
340863.69 6838015.84 758.15
340827.17 6837985.45 778.25
340837.25 6837978.68 783.04
340820.63 6837971.39 782.93
340814.13 6837965.89 785.52
340806.74 6837959.99 795.71
340834.54 6837955.58 783.08
340801.57 6837947.42 805.70
340825.19 6837942.56 798.49
340826.49 6837935.88 787.57
340803.35 6837930.78 799.84
340829.85 6837925.92 792.90
340830.27 6837919.36 796.11
340835.50 6837999.49 781.88
340872.38 6837974.28 777.53
340888.00 6837965.83 783.26
340854.57 6837957.32 778.71
340854.34 6837951.34 791.20
340858.56 6837944.79 786.78
340867.62 6837940.13 785.70
340869.04 6837935.80 785.40
340840.41 6837930.08 789.34
340836.49 6837925.39 787.69
340849.70 6837922.72 784.73
340883.47 6837920.33 779.11
340889.15 6837916.32 779.84
341103.30 6837996.21 647.07
341119.91 6837933.05 648.87
341131.98 6837969.79 636.34
341107.09 6837980.56 645.32
341129.05 6837993.59 630.94
340990.89 6838002.72 717.18
341047.65 6838001.42 671.65
340980.14 6837995.29 717.87
340974.33 6837993.04 723.57
341103.61 6837996.22 653.17
341015.44 6837990.13 703.95
341046.43 6837989.24 678.60
341048.67 6837987.78 686.85
341053.88 6837986.14 674.45
341049.25 6837984.42 678.09
341051.50 6837982.14 676.91
341049.06 6837980.22 684.05
341008.87 6837976.69 725.84
340990.11 6837974.71 719.88
341104.02 6837978.24 654.33
341090.27 6837975.78 654.73
341049.74 6837972.13 687.94
341011.81 6837968.83 710.43
341125.15 6837972.32 654.75
341065.39 6837967.85 693.03
341023.52 6837964.80 703.51
340973.70 6837960.92 736.51
341082.07 6837964.39 662.24
341023.41 6837959.94 703.67
340989.69 6837956.54 732.28
341099.93 6837959.93 653.26
341073.42 6837956.96 668.13
341007.67 6837953.12 723.77
341087.38 6837901.39 670.05
341044.36 6837903.80 709.61
341058.54 6837906.92 698.77
340999.41 6837906.35 743.43
341106.49 6837912.57 658.19
341101.87 6837913.85 659.09
341022.94 6837912.03 713.70
341120.32 6837917.79 669.33
341057.22 6837917.26 702.07
341012.38 6837916.52 726.42
340966.32 6837915.57 755.14
341011.94 6837919.02 732.95
341115.71 6837924.97 660.03
341111.25 6837925.51 661.34
341079.02 6837926.23 670.63
341057.43 6837926.97 681.08
341107.71 6837930.99 656.58
340970.45 6837926.52 744.67
341092.12 6837933.12 669.62
340985.06 6837930.08 738.46
341084.64 6837935.70 679.14
341032.71 6837934.74 720.02
341006.22 6837935.62 731.12
341032.84 6837938.64 704.71
341012.00 6837938.79 736.21
341002.58 6837939.98 721.23
341101.64 6837945.72 662.41
341066.14 6837945.80 688.16
341101.96 6837949.19 665.58
341106.46 6837950.29 650.68
341102.18 6837952.21 652.77
341041.74 6837950.92 696.26
340984.16 6837949.63 734.00
341016.97 6837952.59 725.33
340811.79 6837647.14 819.02
340810.76 6837627.31 822.72
340828.42 6837645.92 814.79
340845.99 6837648.47 806.44
340853.25 6837647.54 805.41
340854.02 6837643.58 812.97
340840.19 6837632.43 809.32
340841.53 6837629.17 830.34
340859.57 6837635.16 826.99
340865.83 6837634.57 802.18
340873.04 6837634.52 818.43
340903.45 6837647.60 798.44
340911.49 6837647.86 789.56
340903.06 6837639.86 797.77
340895.47 6837632.63 800.78
340928.78 6837647.48 793.90
340899.65 6837627.73 798.48
340927.65 6837639.29 794.84
340901.53 6837621.36 795.25
340901.58 6837617.31 795.63
340937.30 6837632.44 793.61
340919.46 6837617.47 800.33
340930.65 6837615.46 784.55
340951.00 6837719.69 772.17
340936.80 6837747.39 775.61
340944.96 6837770.61 770.29
340894.79 6837903.22 773.31
340927.52 6837909.74 766.52
340936.21 6837907.14 752.30
340945.83 6837906.57 747.25
340914.60 6837883.46 773.78
340944.33 6837895.08 755.49
340947.72 6837893.24 749.43
340926.91 6837876.98 762.97
340950.03 6837885.13 757.65
340953.12 6837881.96 751.11
340953.59 6837876.72 761.19
340946.20 6837867.76 755.89
340951.63 6837865.46 759.15
340960.64 6837864.50 754.21
340944.28 6837850.05 774.29
340949.09 6837847.17 756.44
340950.54 6837839.75 775.45
340954.49 6837789.67 764.42
340941.18 6837793.05 770.82
340947.82 6837805.83 764.20
340947.59 6837816.26 762.11
340934.34 6837817.01 769.51
340950.20 6837832.80 758.42
340823.11 6837786.25 801.75
340800.46 6837763.73 830.39
340822.64 6837767.98 803.04
340812.36 6837657.87 816.70
340808.88 6837676.43 815.30
340809.01 6837685.15 813.82
340811.70 6837696.83 813.36
340815.88 6837712.88 811.97
340813.34 6837721.36 809.24
340802.74 6837724.33 826.39
340811.38 6837738.78 811.78
340817.07 6837750.44 814.09
340814.17 6837756.68 806.94
340828.59 6837772.71 806.47
340839.41 6837772.14 806.00
340935.68 6837655.66 783.98
340940.45 6837664.44 779.73
340918.90 6837657.60 785.79
340931.72 6837669.23 783.75
340914.09 6837663.53 808.59
340919.13 6837669.29 785.20
340912.22 6837668.67 795.34
340912.57 6837672.38 787.44
340941.84 6837690.72 781.92
340869.65 6837652.55 801.50
340875.23 6837658.07 815.60
340884.19 6837665.29 810.89
340907.02 6837680.45 788.59
340933.36 6837697.67 784.84
340918.78 6837691.40 786.60
340899.51 6837682.55 803.99
340876.01 6837671.16 802.33
340948.38 6837713.92 777.19
340887.65 6837681.99 794.06
340944.60 6837716.01 785.10
340903.55 6837694.28 788.97
340842.74 6837661.83 826.00
340896.53 6837693.62 813.93
340950.20 6837725.42 789.07
340859.45 6837675.75 818.77
340900.30 6837700.11 803.79
340895.80 6837699.56 806.64
340928.09 6837719.33 791.57
340821.25 6837659.81 820.37
340864.68 6837685.96 800.38
340917.61 6837717.56 796.37
340902.72 6837710.86 798.76
340853.18 6837684.99 822.51
340889.67 6837707.80 793.28
340912.14 6837721.80 797.39
340914.59 6837725.28 799.62
340846.64 6837688.27 815.68
340861.81 6837698.29 808.52
340846.62 6837691.22 811.55
340921.36 6837735.30 800.44
340899.66 6837723.99 801.35
340831.58 6837686.80 818.10
340887.46 6837720.35 796.40
340827.39 6837688.01 809.77
340870.24 6837713.71 810.98
340865.45 6837713.16 808.90
340916.35 6837743.31 788.37
340860.08 6837712.83 800.56
340878.60 6837725.26 795.32
340899.55 6837738.20 804.85
340825.30 6837697.53 822.23
340917.95 6837751.71 781.96
340834.31 6837705.60 815.52
340916.31 6837754.11 786.98
340828.75 6837705.43 805.17
340839.97 6837714.37 802.57
340819.87 6837704.78 807.55
340890.05 6837746.30 791.26
340912.84 6837761.43 782.27
340870.04 6837738.89 797.54
340878.72 6837746.01 807.65
340820.65 6837714.49 817.80
340876.30 6837748.64 797.67
340855.35 6837738.74 800.80
340841.59 6837732.65 801.70
340831.12 6837728.43 813.37
340915.93 6837778.51 781.04
340848.95 6837743.04 801.09
340840.54 6837740.29 801.84
340899.01 6837775.93 803.67
340821.19 6837733.79 806.14
340867.27 6837762.87 810.09
340884.70 6837776.09 790.37
340842.06 6837754.39 804.22
340868.66 6837771.83 812.38
340859.94 6837769.52 797.68
340836.09 6837760.34 808.32
340854.91 6837774.94 807.61
340849.34 6837775.72 815.53
340806.57 6837909.34 796.31
340818.04 6837908.83 793.70
340819.47 6837904.37 795.00
340822.81 6837900.22 794.34
340823.51 6837893.12 805.59
340801.71 6837874.88 803.14
340823.71 6837880.57 799.05
340817.57 6837871.01 802.59
340802.97 6837855.59 811.29
340804.27 6837848.73 815.10
340822.70 6837853.02 801.04
340806.06 6837837.31 804.95
340817.23 6837835.42 801.89
340812.27 6837826.85 812.99
340810.31 6837817.13 810.29
340822.08 6837815.78 801.73
340819.16 6837805.89 820.18
340821.46 6837800.53 805.71
340817.85 6837788.30 807.30
340837.99 6837905.88 802.07
340838.17 6837898.18 804.97
340838.99 6837893.25 790.46
340881.14 6837912.97 785.15
340844.76 6837888.73 804.10
340863.20 6837895.13 788.81
340843.99 6837881.47 801.30
340831.98 6837871.23 794.83
340851.46 6837878.19 789.80
340844.97 6837871.17 791.18
340842.99 6837866.41 794.84
340863.11 6837875.17 799.69
340916.97 6837903.65 778.66
340884.17 6837882.38 779.08
340843.84 6837857.12 792.67
340890.50 6837880.79 786.66
340845.50 6837852.87 792.91
340881.44 6837870.62 797.57
340859.62 6837855.82 798.89
340829.73 6837836.92 797.58
340846.29 6837843.08 804.91
340893.71 6837866.83 778.58
340847.31 6837838.46 793.42
340889.28 6837859.56 780.66
340871.99 6837846.26 799.85
340855.94 6837835.30 811.49
340854.56 6837832.13 800.42
340858.20 6837832.19 805.85
340846.80 6837823.39 803.63
340844.82 6837820.68 794.89
340864.93 6837830.06 790.21
340870.74 6837831.48 788.51
340855.23 6837820.00 795.74
340843.43 6837811.34 799.17
340841.25 6837808.00 813.64
340836.20 6837803.58 809.28
340837.74 6837801.93 798.30
340832.94 6837797.00 811.06
340848.49 6837803.68 804.90
340857.06 6837806.99 812.62
340877.07 6837816.28 798.45
340887.37 6837820.44 785.29
340881.37 6837814.71 787.73
340873.08 6837808.06 800.69
340852.97 6837794.03 805.75
340923.18 6837832.22 786.00
340896.73 6837814.77 782.84
340877.03 6837800.69 803.79
340927.97 6837826.72 785.39
340887.92 6837801.14 794.03
340926.81 6837779.93 778.17
340910.91 6837781.76 791.21
340913.72 6837789.65 780.08
340921.59 6837799.37 777.21
340918.90 6837801.60 778.04
340889.24 6837789.88 787.48
340889.90 6837794.04 804.17
340924.70 6837818.09 785.23
340959.48 6837643.35 775.16
340986.96 6837636.76 771.31
340999.26 6837634.83 766.48
340989.31 6837622.79 768.32
340997.02 6837621.70 765.58
340996.15 6837615.48 769.00
341039.73 6837636.36 742.65
340992.38 6837605.92 773.47
341047.97 6837632.90 735.25
341014.21 6837609.15 761.17
341029.44 6837614.80 747.59
341057.46 6837626.99 740.26
341039.60 6837613.47 750.23
341036.58 6837606.69 747.00
341071.87 6837620.96 724.74
341048.75 6837602.07 738.62
341066.89 6837604.69 744.45
341078.34 6837627.67 719.54
341098.31 6837627.21 705.34
341080.77 6837608.29 720.43
341094.90 6837608.45 724.34
340949.12 6837637.42 782.16
340958.94 6837632.53 793.24
340985.77 6837639.50 777.49
340949.88 6837613.93 779.98
340967.93 6837616.89 786.20
340983.29 6837615.09 778.95
341004.87 6837615.22 781.32
340956.90 6837763.64 775.02
340992.52 6837774.29 748.66
340995.50 6837769.74 747.32
340976.86 6837754.75 759.58
340982.28 6837753.53 766.47
341004.27 6837761.89 749.63
340983.14 6837746.80 757.21
340974.83 6837738.59 766.54
340981.45 6837738.99 767.17
340998.52 6837745.63 764.64
341040.26 6837766.67 715.83
340995.85 6837738.78 759.44
340962.04 6837717.51 769.05
341072.51 6837639.54 745.88
341054.37 6837640.61 730.25
341061.57 6837651.69 737.42
341056.83 6837655.01 727.22
341069.82 6837667.93 726.96
341030.74 6837649.34 753.11
341022.13 6837647.94 751.57
341066.44 6837676.74 731.91
341064.05 6837678.20 735.28
341076.10 6837687.80 709.43
341062.03 6837683.17 732.52
341014.90 6837659.49 756.83
341074.32 6837695.24 709.14
341048.00 6837683.51 734.29
341025.55 6837672.54 750.68
341069.53 6837700.70 710.93
341059.46 6837697.65 719.79
341009.01 6837670.66 766.61
341043.49 6837692.54 733.75
341007.14 6837673.19 766.73
341029.04 6837688.18 756.74
340961.59 6837651.69 774.38
340980.52 6837664.90 767.66
340978.87 6837665.63 768.03
340961.74 6837657.99 774.01
341044.05 6837705.92 739.42
341072.56 6837724.48 712.87
341068.63 6837724.47 711.12
341055.25 6837718.80 729.89
341041.12 6837712.72 741.62
341056.50 6837723.59 733.21
341083.31 6837741.02 708.08
341017.29 6837705.28 754.82
341023.07 6837710.90 751.64
340969.24 6837682.04 775.43
340978.50 6837689.43 771.55
341083.93 6837750.97 689.08
341065.07 6837742.68 702.99
341066.43 6837745.31 704.78
341064.14 6837746.23 711.37
341051.78 6837741.14 712.03
341018.84 6837724.89 750.51
340993.53 6837711.93 755.85
341012.89 6837725.36 745.32
341006.35 6837723.66 749.35
340964.71 6837702.26 773.54
341018.25 6837734.53 738.70
341006.50 6837731.04 748.09
340965.56 6837709.91 769.39
341014.06 6837739.80 740.03
341063.00 6837769.93 708.24
341053.73 6837766.73 721.86
341097.15 6837648.91 702.25
341106.63 6837662.15 695.12
341099.43 6837666.44 699.28
341087.84 6837668.04 706.36
341082.14 6837673.11 721.25
341090.75 6837687.24 707.12
341086.58 6837693.81 711.07
341090.31 6837705.56 700.78
341098.88 6837718.75 684.44
341107.85 6837731.93 675.33
341112.68 6837744.42 676.29
341102.59 6837748.90 677.14
341098.04 6837755.80 679.20
340969.73 6837905.92 751.77
340984.86 6837902.95 747.29
340974.63 6837891.38 755.31
340994.21 6837896.17 740.47
340966.45 6837876.17 745.91
340997.49 6837889.61 744.31
340989.53 6837882.27 748.36
341014.72 6837893.91 723.74
340972.03 6837867.02 755.68
341005.43 6837883.12 729.39
340970.81 6837861.24 757.05
341011.42 6837882.10 735.20
340984.28 6837864.20 744.39
341053.03 6837899.84 705.96
341040.25 6837890.30 712.63
341042.45 6837889.31 696.80
341055.13 6837894.48 694.97
341057.06 6837893.60 684.40
341054.58 6837890.15 686.58
341056.35 6837889.20 688.55
340970.79 6837839.13 761.15
340984.65 6837844.93 760.90
340992.33 6837847.36 739.22
341004.43 6837851.79 744.87
341039.97 6837870.62 711.76
340969.85 6837829.10 751.53
341020.54 6837856.46 719.41
341084.02 6837891.02 674.63
341039.08 6837862.99 710.15
341071.88 6837879.50 696.12
340991.84 6837832.15 741.63
341032.82 6837854.10 708.15
340959.30 6837810.68 763.27
340986.70 6837824.55 744.81
341050.02 6837858.93 706.55
340964.83 6837808.66 756.59
341016.37 6837836.39 723.99
341043.45 6837849.76 700.78
341070.53 6837863.93 692.63
340990.93 6837816.88 748.94
341035.22 6837840.26 717.36
341088.30 6837868.73 672.64
340997.94 6837815.56 742.40
341067.40 6837853.88 685.70
340981.03 6837802.84 751.07
341038.85 6837834.03 714.89
341090.46 6837861.80 668.33
340998.93 6837807.95 749.28
341035.26 6837826.94 722.33
341085.85 6837853.62 679.01
340998.79 6837802.45 746.93
341069.43 6837841.11 682.30
340963.89 6837779.15 772.94
341007.54 6837802.53 736.70
341030.61 6837813.73 716.07
341068.33 6837833.85 683.43
341091.28 6837844.99 669.36
340982.75 6837781.56 753.13
340995.86 6837787.15 750.21
340982.02 6837777.10 770.56
341090.47 6837835.93 669.97
341048.91 6837809.95 701.87
341002.69 6837781.03 738.67
341042.72 6837801.13 707.48
341007.70 6837778.84 745.64
341053.25 6837801.90 700.75
341077.06 6837812.37 695.28
341065.32 6837802.47 705.01
341035.93 6837782.15 717.32
341073.98 6837799.89 689.86
341033.79 6837773.41 720.52
341068.64 6837788.07 700.62
341066.12 6837781.52 694.05
341081.97 6837771.08 694.07
341099.81 6837899.01 679.19
341119.97 6837896.11 653.88
341123.20 6837888.85 664.04
341127.60 6837884.41 661.55
341098.32 6837859.82 672.40
341116.75 6837863.35 665.33
341093.70 6837843.54 674.74
341110.53 6837845.44 667.63
341098.69 6837831.23 674.65
341111.27 6837832.07 672.20
341096.36 6837814.80 670.01
341092.34 6837805.16 675.17
341098.39 6837800.04 672.47
341111.18 6837769.10 676.19
341110.24 6837782.20 672.86
341112.32 6837790.87 685.08
341117.71 6837800.17 680.15
340963.57 6837731.21 777.57
340977.41 6837651.61 786.17
340968.30 6837658.71 779.46
340983.91 6837673.73 785.06
340949.09 6837661.02 777.54
340958.86 6837676.10 793.05
340961.60 6837687.47 785.62
340964.24 6837699.52 784.71
340957.69 6837800.36 778.38
340829.07 6838020.77 759.67
340808.72 6838001.91 772.86
340821.89 6838000.16 773.62
340807.89 6838012.62 763.62
340853.09 6838010.34 762.08
340878.85 6838016.11 753.88
340856.11 6837996.43 768.32
340839.16 6837981.91 776.82
340853.95 6837985.43 773.50
340890.10 6838002.22 757.87
340861.58 6837981.73 773.93
340861.40 6837977.84 772.91
340922.38 6838009.26 745.90
340875.74 6837978.71 772.29
340896.81 6837987.73 768.59
340886.13 6837978.58 765.32
340921.81 6837996.42 748.61
340942.17 6838005.04 730.93
340906.70 6837981.41 762.04
340889.06 6837969.24 776.73
340876.61 6837959.70 775.33
340904.43 6837973.03 769.27
340939.30 6837990.23 742.22
340887.19 6837957.76 768.85
340937.08 6837984.98 740.88
340945.85 6837986.89 741.21
340920.61 6837970.36 759.68
340913.48 6837964.13 752.96
340906.72 6837956.67 772.45
340936.76 6837972.30 752.54
340898.09 6837947.70 763.92
340926.30 6837961.18 750.53
340955.30 6837975.97 743.84
340968.63 6837980.22 726.76
340891.49 6837934.46 770.05
340951.23 6837965.37 737.55
340885.48 6837926.61 772.76
340947.95 6837959.48 739.83
340916.80 6837938.25 756.61
340962.94 6837962.13 733.98
340956.60 6837956.59 743.11
340894.67 6837917.58 770.79
340907.02 6837922.73 766.85
340900.31 6837915.69 776.40
340908.34 6837917.56 766.55
340925.41 6837921.68 753.27
340964.92 6837939.40 738.18
340943.05 6837922.49 752.16
340938.37 6837914.84 748.42
340958.91 6837918.23 742.68
340804.23 6837989.97 780.38
340833.17 6837995.54 778.68
340810.12 6837974.44 784.24
340817.10 6837972.12 783.27
340800.72 6837956.69 789.83
340823.20 6837963.63 786.14
340806.81 6837949.19 794.49
340818.40 6837949.22 801.75
340820.97 6837944.93 790.76
340811.72 6837934.45 807.79
340808.19 6837926.76 793.29
340809.79 6837919.39 795.35
340821.76 6837918.15 791.79
340850.62 6837976.57 777.73
340865.92 6837970.93 782.33
340851.11 6837955.53 779.08
340864.31 6837955.90 789.42
340885.16 6837961.88 785.61
340871.09 6837948.45 783.07
340867.77 6837941.65 777.17
340865.68 6837936.45 778.08
340869.72 6837934.27 777.07
340856.76 6837922.09 794.59
340861.35 6837917.02 782.26
340884.13 6837920.38 783.10
341099.08 6837996.06 644.71
341129.65 6837950.40 644.43
341129.16 6837971.26 646.41
341128.86 6837984.42 646.55
341116.43 6837991.42 639.27
340987.48 6838001.68 720.78
340983.52 6837991.44 719.56
340981.59 6837983.65 737.46
340970.83 6837973.80 728.38
340990.10 6837979.74 717.75
340973.59 6837967.24 729.09
340973.50 6837963.17 730.13
341020.50 6837987.08 711.21
340994.79 6837969.59 719.53
341044.25 6837995.06 678.79
341021.95 6837979.54 717.73
340972.38 6837948.04 743.81
340977.18 6837948.57 741.01
341002.01 6837959.48 718.84
341019.02 6837967.13 713.04
340971.28 6837937.57 736.35
340996.59 6837950.36 742.27
341026.38 6837965.64 706.65
340989.52 6837942.10 730.04
341036.40 6837966.78 712.24
341078.25 6837989.03 665.91
341013.14 6837949.51 721.65
341048.87 6837967.97 683.04
341095.99 6837993.14 653.71
341009.41 6837942.16 721.47
341048.54 6837963.08 688.67
341080.35 6837978.99 672.53
340985.98 6837923.60 734.63
341043.43 6837954.42 696.36
341089.34 6837978.64 654.48
340998.06 6837925.32 737.75
341059.53 6837958.63 686.99
340985.10 6837914.77 738.78
341044.38 6837946.74 713.73
341088.66 6837970.21 665.73
340999.25 6837917.90 744.91
341024.21 6837929.93 711.06
341029.07 6837930.71 724.98
341047.86 6837939.27 690.96
341060.36 6837944.93 697.27
341086.44 6837957.73 660.65
341107.43 6837967.97 653.66
341094.01 6837957.67 656.97
341086.05 6837951.22 662.88
341081.54 6837946.53 666.23
341075.65 6837941.69 680.59
341061.03 6837930.74 679.69
341105.19 6837952.75 659.65
341063.35 6837926.73 692.03
341116.47 6837954.41 657.73
341074.58 6837928.47 667.80
341112.07 6837946.88 654.79
341044.66 6837905.77 708.76
341112.50 6837940.48 662.46
341104.44 6837932.01 659.34
341079.20 6837914.01 670.85
341103.61 6837923.75 660.28
341100.32 6837917.84 659.07
341101.78 6837913.61 660.94
341106.79 6837909.15 669.73
341120.55 6837910.98 660.44
341127.85 6837898.41 653.45
341317.91 6837820.85 591.31
341315.73 6837809.44 594.69
341319.24 6837794.65 595.23
341318.37 6837776.17 597.35
341299.33 6837750.56 598.40
341270.43 6837981.15 585.05
341262.68 6837975.47 590.34
341277.19 6837971.29 592.04
341241.17 6837962.61 596.31
341238.23 6837955.88 599.23
341268.17 6837949.37 592.86
341261.68 6837935.83 597.99
341280.34 6837959.22 590.20
341333.14 6837956.05 571.36
341321.57 6837951.00 590.31
341285.94 6837943.53 595.49
341314.18 6837836.39 591.06
341298.63 6837843.60 599.48
341316.85 6837852.96 590.80
341305.06 6837859.52 594.17
341325.65 6837867.70 591.05
341314.65 6837875.03 589.41
341303.82 6837880.83 592.36
341301.56 6837886.39 595.99
341305.65 6837892.75 594.18
341278.64 6837897.59 597.74
341294.31 6837903.93 597.48
341323.37 6837911.37 594.88
341327.01 6837916.90 583.40
341322.37 6837921.37 582.25
341324.72 6837926.88 579.60
341278.69 6837929.01 593.66
341317.11 6837936.92 581.80
341315.65 6837941.62 581.30
341306.55 6837974.98 577.55
341281.41 6837968.98 588.32
341316.90 6837966.97 575.39
341300.91 6837961.11 581.35
341146.49 6837700.57 672.49
341172.78 6837699.45 672.11
341140.34 6837695.04 669.37
341152.33 6837694.25 658.72
341138.11 6837691.20 670.32
341227.56 6837695.67 630.87
341150.80 6837688.84 660.62
341259.10 6837694.37 624.91
341210.33 6837689.95 642.57
341190.17 6837686.99 660.09
341139.27 6837682.37 673.57
341173.55 6837682.77 664.50
341143.57 6837679.43 670.24
341224.36 6837682.99 630.09
341243.74 6837618.72 638.79
341193.13 6837613.17 662.57
341254.07 6837614.89 633.21
341219.00 6837610.29 646.94
341207.97 6837607.86 653.98
341173.97 6837603.45 674.26
341215.85 6837603.89 658.60
341238.49 6837602.70 632.45
341174.77 6837616.63 667.96
341257.93 6837623.61 623.56
341175.39 6837621.13 658.43
341161.47 6837621.55 664.18
341186.84 6837625.15 654.81
341175.38 6837626.11 677.99
341229.06 6837631.91 649.39
341244.30 6837634.79 636.62
341179.26 6837632.34 654.22
341181.73 6837634.15 653.01
341257.18 6837640.96 630.08
341205.97 6837640.10 642.10
341220.15 6837642.40 635.37
341161.52 6837640.68 674.89
341158.55 6837642.14 662.80
341220.10 6837648.37 635.02
341187.87 6837648.60 656.80
341166.31 6837648.68 675.73
341165.99 6837650.53 667.28
341192.37 6837653.47 647.46
341254.45 6837659.69 624.47
341204.97 6837657.60 641.58
341242.82 6837662.53 623.37
341154.00 6837658.21 670.26
341198.95 6837662.73 661.07
341171.22 6837662.74 668.79
341158.45 6837664.13 671.58
341244.51 6837671.25 629.64
341243.89 6837672.83 626.29
341168.26 6837670.40 667.78
341180.58 6837673.00 656.48
341194.22 6837675.32 643.94
341194.02 6837676.81 644.00
341232.80 6837680.70 632.82
341125.86 6837833.72 658.82
341137.72 6837822.31 654.33
341138.66 6837810.82 663.90
341121.02 6837797.68 667.48
341131.09 6837786.63 660.78
341129.38 6837775.66 661.66
341124.47 6837766.49 674.54
341135.64 6837756.91 660.65
341127.79 6837742.94 665.63
341125.92 6837723.94 672.16
341148.19 6837831.54 659.70
341151.05 6837828.48 656.78
341220.76 6837831.06 622.27
341177.88 6837826.11 652.18
341173.68 6837824.35 638.67
341166.32 6837822.27 644.67
341163.58 6837820.19 651.79
341160.32 6837818.51 652.05
341157.93 6837816.78 655.63
341141.31 6837814.35 654.08
341239.32 6837819.02 629.45
341228.12 6837816.47 622.17
341213.73 6837814.24 629.69
341214.03 6837812.28 626.73
341198.57 6837810.11 637.67
341187.07 6837807.52 636.51
341191.47 6837806.25 638.57
341186.05 6837803.82 637.27
341182.22 6837802.07 637.35
341186.03 6837800.10 637.71
341169.28 6837797.40 645.38
341163.60 6837794.97 655.68
341169.66 6837793.84 647.83
341156.09 6837791.20 654.89
341156.15 6837789.89 650.83
341140.64 6837787.13 671.60
341265.25 6837793.41 615.29
341256.36 6837791.17 624.65
341267.72 6837790.03 606.28
341149.61 6837780.55 653.47
341261.15 6837785.78 616.40
341240.43 6837782.78 626.90
341218.56 6837779.88 646.15
341181.42 6837776.39 644.51
341138.05 6837772.50 665.19
341244.15 6837777.61 615.30
341207.57 6837773.49 631.19
341179.29 6837770.37 643.21
341160.23 6837767.49 661.24
341146.59 6837765.29 662.12
341251.25 6837770.18 618.00
341240.92 6837767.85 627.44
341244.63 6837766.27 624.59
341222.06 6837763.31 624.45
341202.76 6837760.58 633.88
341187.45 6837758.01 637.99
341168.75 6837754.96 656.76
341152.28 6837751.67 661.35
341143.38 6837749.28 663.66
341264.98 6837754.89 620.89
341250.58 6837752.65 618.43
341237.13 6837749.66 620.54
341220.29 6837747.13 622.74
341214.21 6837744.66 627.09
341204.81 6837742.58 631.40
341206.20 6837740.55 641.74
341204.69 6837738.96 644.74
341195.74 6837736.23 652.43
341189.39 6837734.26 651.59
341160.55 6837730.51 664.02
341153.56 6837728.51 665.41
341146.96 6837725.91 661.28
341258.85 6837731.35 622.93
341250.17 6837729.17 613.81
341239.40 6837727.02 626.05
341224.41 6837724.42 641.06
341209.87 6837721.89 630.44
341190.88 6837718.06 650.68
341176.99 6837715.57 646.48
341162.52 6837712.63 657.57
341142.82 6837710.33 668.17
341237.20 6837714.87 622.05
341231.54 6837713.07 624.14
341203.60 6837709.85 641.99
341198.33 6837707.92 635.49
341240.12 6837708.54 624.03
341239.33 6837705.81 621.95
341228.59 6837701.04 632.24
341274.45 6837824.96 606.71
341278.72 6837813.72 602.82
341318.34 6837804.54 607.72
341317.47 6837797.91 611.24
341282.67 6837790.85 601.38
341305.86 6837785.32 602.69
341311.09 6837779.17 603.65
341271.11 6837772.96 604.04
341299.08 6837769.27 603.40
341296.42 6837763.95 613.00
341270.47 6837756.25 607.43
341299.12 6837751.47 602.84
341276.95 6837745.47 619.74
341294.48 6837741.04 608.67
341299.90 6837736.67 601.07
341270.42 6837730.31 614.12
341300.29 6837727.65 613.92
341276.41 6837722.11 621.86
341300.13 6837718.42 601.10
341279.76 6837713.19 622.92
341300.22 6837710.05 615.53
341279.31 6837704.84 611.49
341266.45 6837698.45 612.43
341279.37 6837695.50 622.74
341267.21 6837690.51 622.18
341304.77 6837687.52 606.63
341278.35 6837681.55 618.78
341279.29 6837676.67 616.57
341283.37 6837671.98 621.44
341286.00 6837666.67 617.19
341266.26 6837661.03 615.81
341294.73 6837657.75 608.21
341288.60 6837652.17 611.44
341267.03 6837645.84 617.67
341296.89 6837641.20 608.03
341262.04 6837634.84 632.37
341297.60 6837631.16 618.26
341273.34 6837625.40 619.14
341295.04 6837600.79 630.53
341287.18 6837605.26 626.83
341282.67 6837610.09 616.68
341297.89 6837615.23 611.73
341279.80 6837620.67 614.70
341140.17 6837955.77 636.11
341126.59 6837839.57 662.25
341132.41 6837850.80 670.22
341135.43 6837864.59 664.73
341136.40 6837880.48 649.34
341136.92 6837894.66 660.82
341143.27 6837909.60 643.50
341142.38 6837922.89 641.17
341135.03 6837940.93 641.20
341149.82 6837962.30 635.39
341220.37 6837963.49 604.17
341148.13 6837956.22 632.41
341219.37 6837958.99 605.32
341201.32 6837955.32 625.12
341156.54 6837950.10 633.87
341211.32 6837951.87 618.44
341260.03 6837830.77 622.02
341263.16 6837836.80 614.21
341240.17 6837837.83 619.32
341172.27 6837835.74 640.60
341193.25 6837839.65 628.81
341240.64 6837843.69 618.47
341231.22 6837844.93 627.07
341224.76 6837845.75 619.63
341235.94 6837848.31 618.05
341166.98 6837845.19 643.68
341230.65 6837850.73 617.41
341244.82 6837853.33 611.77
341238.12 6837854.62 630.51
341239.43 6837856.41 616.48
341161.08 6837852.48 642.31
341160.27 6837854.41 648.31
341222.73 6837859.57 619.75
341224.16 6837861.82 619.02
341231.68 6837863.82 620.41
341272.87 6837868.25 605.27
341169.06 6837863.08 642.09
341193.12 6837866.32 631.55
341161.74 6837866.13 640.30
341149.22 6837866.93 646.69
341249.21 6837874.50 609.65
341234.16 6837875.64 614.88
341231.94 6837877.44 615.08
341155.95 6837873.52 654.04
341203.36 6837878.16 623.11
341187.46 6837878.67 628.71
341177.36 6837880.16 632.33
341236.78 6837885.31 626.16
341188.23 6837884.54 627.44
341253.51 6837889.70 604.93
341232.85 6837890.38 613.69
341271.46 6837894.26 601.56
341217.78 6837892.19 629.31
341237.71 6837895.17 612.81
341246.13 6837897.36 616.71
341242.10 6837899.06 611.43
341231.65 6837900.24 612.74
341269.39 6837904.40 601.16
341214.48 6837903.08 616.66
341186.53 6837902.54 625.80
341160.59 6837902.45 655.43
341162.15 6837904.46 645.86
341145.43 6837904.98 658.69
341226.57 6837911.93 610.56
341193.95 6837911.51 634.98
341226.35 6837915.72 619.82
341181.52 6837915.02 625.12
341148.43 6837915.25 640.07
341222.53 6837920.85 623.84
341161.93 6837919.23 633.32
341156.76 6837920.66 645.67
341230.25 6837928.02 622.27
341239.03 6837930.20 617.42
341213.03 6837930.84 625.50
341183.22 6837931.26 621.51
341234.32 6837936.11 619.16
341153.66 6837933.20 632.59
341173.58 6837936.14 631.28
341223.84 6837941.96 609.63
341153.49 6837939.14 632.15
341194.42 6837944.39 615.56
341213.10 6837947.20 623.89
341144.49 6837989.95 625.83
341143.91 6837973.89 638.78
341178.71 6837987.85 611.92
341199.50 6837985.84 617.68
341216.14 6837982.58 600.90
341167.56 6837976.19 628.18
341188.16 6837974.67 616.07
341217.17 6837973.61 606.54
341218.25 6837970.93 603.62
341249.00 6837969.68 601.24
341278.39 6837900.25 601.19
341273.32 6837860.94 605.41
341278.84 6837845.89 603.41
341271.92 6837831.99 619.57
341293.40 6837816.21 598.37
341301.63 6837810.55 598.16
341310.19 6837801.00 597.27
341311.35 6837780.38 596.32
341311.97 6837748.56 597.50
341239.93 6837977.59 593.86
341264.22 6837980.06 587.16
341241.23 6837958.86 597.31
341277.55 6837972.71 592.01
341255.52 6837951.18 596.58
341277.02 6837950.80 590.73
341277.44 6837934.65 593.79
341285.32 6837958.75 595.60
341280.35 6837944.04 592.28
341304.66 6837950.12 583.75
341320.50 6837954.04 581.94
341280.55 6837923.49 593.17
341301.56 6837932.02 590.77
341328.59 6837942.81 574.73
341297.05 6837919.64 597.54
341299.91 6837916.16 595.17
341292.61 6837907.00 595.31
341305.66 6837910.52 589.27
341314.32 6837911.23 587.34
341323.07 6837911.27 582.88
341313.93 6837900.02 587.25
341299.47 6837885.10 596.16
341307.08 6837829.46 593.18
341310.14 6837842.00 594.17
341296.13 6837841.92 596.03
341311.44 6837857.97 591.49
341316.62 6837867.94 595.38
341294.64 6837861.05 595.79
341311.29 6837878.20 590.26
341324.83 6837893.82 586.29
341290.05 6837968.43 588.54
341314.93 6837975.11 578.95
341313.48 6837963.35 578.28
341139.91 6837704.19 666.94
341140.78 6837691.94 675.84
341242.34 6837605.51 642.46
341251.60 6837616.73 628.98
341251.76 6837621.68 633.81
341216.34 6837604.03 651.72
341250.90 6837627.76 638.33
341219.92 6837612.85 639.09
341203.86 6837606.83 657.80
341206.17 6837611.07 655.73
341235.16 6837630.17 639.92
341200.97 6837612.48 655.89
341237.64 6837636.54 640.21
341255.53 6837650.03 622.54
341193.53 6837614.30 656.36
341201.44 6837621.45 645.42
341169.98 6837604.19 679.85
341218.84 6837635.92 639.22
341206.54 6837630.80 654.76
341259.83 6837665.20 624.65
341171.29 6837614.07 658.46
341201.14 6837634.63 644.77
341218.59 6837646.88 635.54
341262.45 6837675.89 618.49
341250.96 6837670.66 630.68
341165.69 6837622.07 671.49
341211.58 6837650.89 645.82
341159.33 6837622.51 666.90
341175.57 6837634.83 660.85
341254.03 6837684.14 622.91
341212.19 6837661.67 641.05
341231.62 6837674.56 629.45
341232.97 6837676.78 631.84
341249.50 6837689.28 619.80
341252.31 6837692.82 617.50
341189.05 6837656.97 668.51
341190.20 6837659.77 661.11
341219.27 6837679.81 637.09
