192
0.0000 0.0000 307.2687
0.0000 50.0000 303.0955
0.0000 100.0000 299.2908
0.0000 150.0000 296.7680
0.0000 200.0000 293.7285
0.0000 250.0000 288.6613
0.0000 300.0000 283.1835
0.0000 350.0000 271.2802
0.0000 400.0000 240.3632
0.0000 450.0000 203.1228
0.0000 500.0000 222.6133
0.0000 550.0000 249.0656
50.0000 0.0000 294.8438
50.0000 50.0000 292.6599
50.0000 100.0000 288.8649
50.0000 150.0000 285.7113
50.0000 200.0000 281.6653
50.0000 250.0000 276.3086
50.0000 300.0000 269.4168
50.0000 350.0000 259.5850
50.0000 400.0000 230.4819
50.0000 450.0000 179.8552
50.0000 500.0000 156.3603
50.0000 550.0000 195.2735
100.0000 0.0000 279.7423
100.0000 50.0000 277.0723
100.0000 100.0000 275.3193
100.0000 150.0000 269.6601
100.0000 200.0000 265.7604
100.0000 250.0000 259.5530
100.0000 300.0000 248.2665
100.0000 350.0000 239.2508
100.0000 400.0000 214.7243
100.0000 450.0000 163.9791
100.0000 500.0000 133.3721
100.0000 550.0000 159.2466
150.0000 0.0000 265.7965
150.0000 50.0000 262.4358
150.0000 100.0000 256.1498
150.0000 150.0000 249.2578
150.0000 200.0000 242.7911
150.0000 250.0000 237.7231
150.0000 300.0000 230.6250
150.0000 350.0000 218.5899
150.0000 400.0000 189.7954
150.0000 450.0000 145.0089
150.0000 500.0000 109.5874
150.0000 550.0000 120.6568
200.0000 0.0000 244.3271
200.0000 50.0000 236.9921
200.0000 100.0000 228.7664
200.0000 150.0000 219.1384
200.0000 200.0000 211.8891
200.0000 250.0000 209.7903
200.0000 300.0000 205.8189
200.0000 350.0000 193.4001
200.0000 400.0000 160.0645
200.0000 450.0000 129.5555
200.0000 500.0000 95.1536
200.0000 550.0000 95.1094
250.0000 0.0000 215.8262
250.0000 50.0000 206.1992
250.0000 100.0000 194.3094
250.0000 150.0000 183.5073
250.0000 200.0000 173.1308
250.0000 250.0000 167.3468
250.0000 300.0000 161.3030
250.0000 350.0000 157.1831
250.0000 400.0000 137.6800
250.0000 450.0000 108.3766
250.0000 500.0000 83.8096
250.0000 550.0000 74.1146
300.0000 0.0000 179.1341
300.0000 50.0000 167.5690
300.0000 100.0000 158.1688
300.0000 150.0000 156.8230
300.0000 200.0000 153.0192
300.0000 250.0000 147.6752
300.0000 300.0000 140.9061
300.0000 350.0000 131.6680
300.0000 400.0000 112.2141
300.0000 450.0000 91.7364
300.0000 500.0000 71.7847
300.0000 550.0000 66.9419
350.0000 0.0000 152.3129
350.0000 50.0000 148.1294
350.0000 100.0000 140.0101
350.0000 150.0000 135.5479
350.0000 200.0000 131.6051
350.0000 250.0000 128.0070
350.0000 300.0000 120.2128
350.0000 350.0000 109.0739
350.0000 400.0000 96.3868
350.0000 450.0000 73.0969
350.0000 500.0000 57.6799
350.0000 550.0000 57.9963
400.0000 0.0000 128.6228
400.0000 50.0000 122.4073
400.0000 100.0000 116.6164
400.0000 150.0000 115.5297
400.0000 200.0000 113.1296
400.0000 250.0000 110.3390
400.0000 300.0000 102.6230
400.0000 350.0000 91.3353
400.0000 400.0000 77.3532
400.0000 450.0000 57.7201
400.0000 500.0000 49.5215
400.0000 550.0000 54.6942
450.0000 0.0000 110.8800
450.0000 50.0000 104.5433
450.0000 100.0000 103.4545
450.0000 150.0000 99.1414
450.0000 200.0000 95.8765
450.0000 250.0000 92.9393
450.0000 300.0000 86.2312
450.0000 350.0000 76.2632
450.0000 400.0000 62.5086
450.0000 450.0000 48.4392
450.0000 500.0000 49.9864
450.0000 550.0000 68.8219
500.0000 0.0000 96.7914
500.0000 50.0000 92.7855
500.0000 100.0000 90.2432
500.0000 150.0000 86.3254
500.0000 200.0000 78.2301
500.0000 250.0000 76.0360
500.0000 300.0000 69.2421
500.0000 350.0000 60.7278
500.0000 400.0000 48.7369
500.0000 450.0000 41.6060
500.0000 500.0000 55.5670
500.0000 550.0000 83.4515
550.0000 0.0000 77.9208
550.0000 50.0000 75.6196
550.0000 100.0000 74.4276
550.0000 150.0000 72.2685
550.0000 200.0000 66.9327
550.0000 250.0000 61.7350
550.0000 300.0000 57.4182
550.0000 350.0000 51.6483
550.0000 400.0000 43.8984
550.0000 450.0000 42.8228
550.0000 500.0000 66.1876
550.0000 550.0000 83.2717
600.0000 0.0000 63.9090
600.0000 50.0000 65.5135
600.0000 100.0000 62.3809
600.0000 150.0000 59.3287
600.0000 200.0000 57.2001
600.0000 250.0000 52.0436
600.0000 300.0000 49.2371
600.0000 350.0000 46.4493
600.0000 400.0000 37.8681
600.0000 450.0000 48.1410
600.0000 500.0000 66.8226
600.0000 550.0000 74.4152
650.0000 0.0000 50.3845
650.0000 50.0000 52.3528
650.0000 100.0000 50.7536
650.0000 150.0000 46.2257
650.0000 200.0000 45.9224
650.0000 250.0000 42.3036
650.0000 300.0000 40.9586
650.0000 350.0000 37.0596
650.0000 400.0000 34.8951
650.0000 450.0000 50.7986
650.0000 500.0000 55.9531
650.0000 550.0000 58.4501
700.0000 0.0000 32.6794
700.0000 50.0000 35.8243
700.0000 100.0000 35.4337
700.0000 150.0000 33.5736
700.0000 200.0000 34.8802
700.0000 250.0000 34.3903
700.0000 300.0000 35.7052
700.0000 350.0000 28.7309
700.0000 400.0000 22.4183
700.0000 450.0000 36.0362
700.0000 500.0000 42.6005
700.0000 550.0000 43.0121
750.0000 0.0000 16.6432
750.0000 50.0000 18.6840
750.0000 100.0000 24.7191
750.0000 150.0000 28.7409
750.0000 200.0000 30.2951
750.0000 250.0000 28.2234
750.0000 300.0000 26.1794
750.0000 350.0000 17.1066
750.0000 400.0000 14.6258
750.0000 450.0000 28.4740
750.0000 500.0000 30.6174
750.0000 550.0000 32.9310
